x,y,z,r,g,b
10,13,5,0.4823529411764706,0.38235294117647056,0.28431372549019607
82,0,26,0.2784313725490196,0.30980392156862746,0.3254901960784314
22,60,36,0.49215686274509807,0.4549019607843137,0.4392156862745098
10,13,4,0.5450980392156863,0.4392156862745098,0.3568627450980392
10,12,4,0.5196078431372549,0.41830065359477125,0.3424836601307189
64,49,3,0.6098039215686275,0.5274509803921569,0.4725490196078431
81,34,3,0.6039215686274509,0.5215686274509804,0.4666666666666667
58,7,68,0.025490196078431372,0.20784313725490197,0.2529411764705882
101,56,38,0.5529411764705883,0.4843137254901961,0.45294117647058824
10,12,6,0.4588235294117647,0.36993464052287583,0.2849673202614379
106,0,17,0.26666666666666666,0.2980392156862745,0.3137254901960784
10,13,8,0.5509803921568628,0.44705882352941173,0.3647058823529412
10,12,8,0.5228758169934641,0.42614379084967324,0.34379084967320256
76,0,50,0.265359477124183,0.2980392156862745,0.3176470588235294
34,50,0,0.6143790849673203,0.5359477124183006,0.48366013071895425
26,25,57,0.13562091503267976,0.10784313725490197,0.051416122004357294
10,12,9,0.4784313725490196,0.38823529411764707,0.3019607843137255
10,12,7,0.5058823529411764,0.40784313725490196,0.32941176470588235
49,5,51,0.15686274509803919,0.14901960784313723,0.12941176470588237
77,25,3,0.6013071895424836,0.5111111111111111,0.4549019607843137
44,32,48,0.5516977522716405,0.4650406504065039,0.413582018173123
10,11,8,0.5333333333333333,0.43137254901960786,0.34901960784313724
10,10,5,0.5470588235294118,0.4490196078431372,0.37254901960784315
10,9,4,0.5427450980392157,0.4431372549019608,0.36705882352941177
10,7,6,0.5098039215686274,0.403921568627451,0.3176470588235294
68,39,49,0.5800356506238858,0.4887700534759358,0.44278074866310174
44,27,56,0.2598039215686274,0.21862745098039216,0.16470588235294117
62,17,57,0.1708683473389356,0.28515406162464985,0.2834733893557423
10,8,6,0.5156862745098039,0.4117647058823529,0.32352941176470584
45,60,20,0.5607843137254902,0.5215686274509803,0.4980392156862745
45,25,76,0.42614379084967324,0.3712418300653595,0.29411764705882354
10,9,6,0.5235294117647059,0.42254901960784313,0.346078431372549
10,9,5,0.5392156862745098,0.4411764705882353,0.3647058823529412
10,13,10,0.38823529411764707,0.3137254901960784,0.2196078431372549
10,4,16,0.5019607843137255,0.4,0.30980392156862746
27,12,51,0.1627450980392157,0.1803921568627451,0.18823529411764706
10,12,11,0.4411764705882353,0.3568627450980392,0.2803921568627451
116,51,45,0.5354723707664885,0.45383244206773626,0.4014260249554367
85,20,3,0.5973856209150327,0.5058823529411764,0.4522875816993464
17,45,0,0.6,0.5137254901960784,0.4588235294117647
10,11,13,0.5196078431372549,0.4137254901960784,0.33529411764705885
107,30,48,0.5777777777777777,0.49673202614379086,0.4326797385620915
47,23,56,0.1476355247981546,0.10668973471741643,0.04325259515570935
10,11,12,0.5254901960784314,0.4196078431372549,0.3411764705882353
44,23,52,0.43137254901960786,0.37058823529411766,0.3156862745098039
10,10,13,0.5333333333333333,0.43137254901960786,0.35294117647058826
10,9,11,0.5392156862745099,0.43529411764705883,0.3588235294117647
40,6,68,0.02843137254901961,0.17745098039215687,0.21764705882352944
10,8,11,0.4843137254901961,0.38627450980392153,0.3058823529411765
10,9,10,0.5078431372549019,0.40784313725490196,0.33137254901960783
10,8,10,0.42156862745098045,0.32450980392156864,0.246078431372549
10,9,7,0.5215686274509803,0.4196078431372549,0.3411764705882353
107,5,37,0.5490196078431373,0.4470588235294118,0.3843137254901961
10,6,7,0.5,0.40098039215686276,0.30686274509803924
10,2,4,0.40705882352941175,0.31686274509803924,0.2062745098039216
83,2,54,0.30980392156862746,0.28627450980392155,0.246078431372549
61,0,18,0.2705882352941177,0.3,0.32156862745098036
62,4,49,0.1784313725490196,0.1588235294117647,0.13725490196078433
115,53,4,0.5363834422657952,0.4623093681917212,0.42832244008714593
10,4,5,0.49607843137254903,0.39019607843137255,0.28823529411764703
107,40,25,0.6,0.49411764705882355,0.43137254901960786
43,56,41,0.5568627450980392,0.48627450980392156,0.45098039215686275
10,1,4,0.33696441539578786,0.2822076978939724,0.1860566448801744
10,8,12,0.5078431372549019,0.40784313725490196,0.3254901960784314
43,49,0,0.5904761904761905,0.5019607843137255,0.45042016806722696
10,11,14,0.5274509803921569,0.41764705882352937,0.3411764705882353
75,0,48,0.2627450980392157,0.29411764705882354,0.3137254901960784
10,11,15,0.5254901960784314,0.4196078431372549,0.33725490196078434
45,0,68,0.26666666666666666,0.30196078431372547,0.31895424836601305
61,0,29,0.2705882352941177,0.3058823529411765,0.3235294117647059
10,13,16,0.49215686274509807,0.38823529411764707,0.30000000000000004
10,12,16,0.5098039215686274,0.403921568627451,0.3196078431372549
116,51,36,0.5378151260504201,0.4504201680672268,0.4016806722689075
10,13,17,0.44313725490196076,0.34509803921568627,0.27058823529411763
85,60,13,0.5372549019607843,0.4980392156862745,0.4745098039215686
10,12,18,0.5323529411764706,0.41862745098039217,0.33039215686274515
58,29,49,0.5070588235294118,0.42000000000000004,0.3619607843137255
10,17,21,0.5568627450980392,0.45294117647058824,0.3764705882352941
10,4,8,0.48823529411764705,0.38431372549019605,0.29215686274509806
83,0,15,0.27058823529411763,0.303921568627451,0.3196078431372549
14,42,2,0.592156862745098,0.5098039215686274,0.4564705882352941
10,16,22,0.5470588235294118,0.4490196078431372,0.3764705882352941
44,30,49,0.5459694989106754,0.4535947712418301,0.39694989106753803
10,16,24,0.5686274509803921,0.4666666666666667,0.3921568627450981
49,56,42,0.5542483660130719,0.47843137254901963,0.4418300653594771
10,15,24,0.5901960784313725,0.48823529411764705,0.40784313725490196
59,0,66,0.26143790849673204,0.29150326797385623,0.30980392156862746
10,15,22,0.596078431372549,0.49411764705882355,0.4117647058823529
66,60,16,0.5509803921568628,0.5058823529411764,0.4843137254901961
10,15,21,0.6431372549019607,0.5372549019607844,0.45098039215686275
10,13,20,0.5784313725490196,0.4607843137254902,0.37058823529411766
36,22,57,0.3251336898395722,0.27629233511586454,0.20142602495543674
20,60,8,0.5254901960784314,0.4823529411764706,0.4627450980392157
10,60,8,0.5294117647058824,0.49019607843137253,0.4745098039215686
23,0,75,0.2784313725490196,0.3058823529411765,0.3215686274509804
10,13,24,0.5411764705882353,0.43137254901960786,0.33725490196078434
10,11,20,0.5588235294117646,0.45,0.3647058823529412
70,65,39,0.5137254901960784,0.4745098039215686,0.4627450980392157
49,3,51,0.15686274509803916,0.14901960784313723,0.12941176470588237
98,8,3,0.5738562091503268,0.48888888888888893,0.43790849673202614
43,3,51,0.1584313725490196,0.14980392156862746,0.13019607843137254
10,12,21,0.5503267973856208,0.4444444444444444,0.3542483660130719
10,11,19,0.5215686274509804,0.4137254901960784,0.33137254901960783
24,56,0,0.6039215686274509,0.5215686274509804,0.47058823529411764
10,10,18,0.5254901960784314,0.41568627450980394,0.3333333333333333
10,10,17,0.5254901960784314,0.4196078431372549,0.33725490196078434
10,10,16,0.5294117647058824,0.4235294117647059,0.3411764705882353
15,44,49,0.6405228758169934,0.5660130718954248,0.5058823529411764
98,24,80,0.24420677361853835,0.1976827094474154,0.14349376114081994
10,9,15,0.5019607843137255,0.4,0.3137254901960784
104,7,66,0.05258103241296516,0.06610644257703088,0.07138855542216893
39,17,61,0.18958755916159564,0.32413793103448285,0.32819472616632867
10,8,16,0.4882352941176471,0.39215686274509803,0.3058823529411765
74,54,3,0.5843137254901961,0.5045751633986928,0.4562091503267974
36,20,56,0.2139283299526708,0.19202163624070318,0.14739688979039892
41,6,3,0.5735294117647058,0.4852941176470588,0.4294117647058824
10,8,18,0.5215686274509804,0.41568627450980394,0.3254901960784314
96,60,14,0.4928104575163399,0.44052287581699345,0.4196078431372549
10,8,13,0.5019607843137255,0.403921568627451,0.3176470588235294
10,7,15,0.4666666666666667,0.3686274509803922,0.28627450980392155
61,16,3,0.6235294117647059,0.5294117647058824,0.4647058823529412
116,56,41,0.5489456159822426,0.47532371439141635,0.4390677025527189
87,0,5,0.2901960784313725,0.32156862745098036,0.3333333333333333
10,8,19,0.5274509803921569,0.4235294117647059,0.3254901960784313
10,10,22,0.5490196078431373,0.4470588235294118,0.3686274509803922
105,56,37,0.5529411764705883,0.4901960784313726,0.4627450980392157
82,14,52,0.09625668449197859,0.1691622103386809,0.17290552584670232
10,10,24,0.5333333333333333,0.4294117647058824,0.3529411764705882
41,4,49,0.1803921568627451,0.1607843137254902,0.13725490196078433
10,10,23,0.5450980392156862,0.4392156862745098,0.3607843137254902
28,60,22,0.48039215686274506,0.4411764705882353,0.4235294117647059
32,47,52,0.638235294117647,0.5627450980392156,0.5181372549019607
38,8,68,0.023529411764705882,0.2235294117647059,0.26666666666666666
57,26,56,0.5019607843137255,0.41568627450980394,0.36078431372549025
10,10,25,0.5228758169934641,0.4196078431372549,0.3450980392156863
69,52,3,0.5901960784313726,0.5098039215686274,0.4588235294117647
10,9,24,0.5392156862745098,0.4392156862745098,0.36274509803921573
10,8,24,0.5235294117647059,0.4176470588235294,0.33137254901960783
88,0,30,0.27058823529411763,0.30196078431372547,0.3176470588235294
10,9,20,0.5333333333333333,0.4235294117647059,0.3392156862745098
76,13,49,0.13725490196078433,0.12941176470588237,0.11764705882352941
15,49,52,0.6522875816993464,0.5764705882352941,0.5320261437908497
16,1,81,0.48104575163398694,0.41307189542483663,0.3477124183006535
10,8,20,0.5254901960784314,0.4156862745098039,0.32352941176470584
56,11,51,0.1607843137254902,0.14901960784313725,0.12941176470588237
10,5,18,0.5058823529411764,0.4,0.3058823529411765
65,27,49,0.4519607843137255,0.3735294117647059,0.3107843137254902
96,0,63,0.2627450980392157,0.29411764705882354,0.30980392156862746
81,7,70,0.06298276886512183,0.08686868686868685,0.0947118241235888
10,6,17,0.515032679738562,0.40392156862745104,0.2901960784313726
10,3,16,0.4627450980392157,0.3588235294117647,0.2529411764705882
34,52,0,0.6098039215686275,0.5274509803921569,0.4764705882352941
10,3,17,0.4745098039215686,0.37254901960784315,0.2627450980392157
10,4,15,0.49150326797385624,0.388235294117647,0.28758169934640526
31,17,61,0.12287581699346406,0.269281045751634,0.2797385620915033
10,2,16,0.403921568627451,0.3168627450980392,0.18666666666666668
10,2,14,0.4088235294117647,0.3254901960784314,0.2
105,10,3,0.5686274509803921,0.5058823529411764,0.4627450980392157
10,2,13,0.40653594771241836,0.32026143790849676,0.19934640522875816
10,2,12,0.4,0.312156862745098,0.1796078431372549
93,0,20,0.27058823529411763,0.30196078431372547,0.3176470588235294
91,0,15,0.2647058823529412,0.2980392156862745,0.31176470588235294
10,2,11,0.39607843137254906,0.307843137254902,0.15980392156862744
10,3,11,0.4679738562091503,0.36339869281045756,0.265359477124183
10,5,9,0.4993464052287582,0.3908496732026144,0.2980392156862745
10,2,8,0.411764705882353,0.3215686274509804,0.2026143790849673
86,1,64,0.30980392156862746,0.3411764705882353,0.3137254901960784
10,3,12,0.4764705882352941,0.37058823529411766,0.27647058823529413
77,27,3,0.596078431372549,0.503921568627451,0.44705882352941173
10,3,13,0.4745098039215686,0.3686274509803922,0.27058823529411763
10,4,12,0.49411764705882355,0.3843137254901961,0.28627450980392155
81,0,81,0.2627450980392157,0.2980392156862745,0.3137254901960784
32,25,51,0.43823529411764706,0.3764705882352941,0.3215686274509804
61,5,3,0.5686274509803921,0.48104575163398694,0.4235294117647059
40,9,51,0.17352941176470588,0.16372549019607843,0.15098039215686274
10,4,14,0.5058823529411764,0.4,0.30196078431372547
10,21,24,0.611764705882353,0.5098039215686274,0.41307189542483663
76,58,41,0.5047289504036909,0.4311418685121109,0.39515570934256067
10,51,0,0.6137254901960785,0.5274509803921569,0.4764705882352941
77,1,79,0.4627450980392157,0.40784313725490196,0.3568627450980392
10,5,12,0.5029411764705882,0.3941176470588236,0.29411764705882354
17,42,49,0.6666666666666666,0.5973856209150327,0.5450980392156862
71,25,82,0.37882352941176495,0.31011764705882344,0.22792156862745103
10,6,16,0.4901960784313726,0.38627450980392153,0.29411764705882354
10,6,15,0.4496732026143791,0.3490196078431373,0.26013071895424833
10,6,14,0.47058823529411764,0.37058823529411766,0.2784313725490196
93,55,41,0.4756302521008403,0.4231559290382821,0.39402427637721765
10,6,12,0.5098039215686274,0.41568627450980394,0.3215686274509804
116,46,52,0.5915032679738566,0.5125116713352008,0.4665732959850605
95,1,3,0.45266106442577037,0.36918767507002803,0.30700280112044814
10,7,12,0.5176470588235293,0.4372549019607843,0.3568627450980392
10,6,10,0.4490196078431372,0.3529411764705882,0.26862745098039215
20,58,0,0.6019607843137255,0.5176470588235295,0.4627450980392157
10,6,9,0.48627450980392156,0.3941176470588235,0.307843137254902
92,48,52,0.6562091503267974,0.5908496732026144,0.5437908496732026
92,9,56,0.05392156862745098,0.15784313725490196,0.16862745098039217
10,5,8,0.5032679738562091,0.39738562091503266,0.30065359477124187
10,1,6,0.27990196078431373,0.26274509803921564,0.13186274509803922
10,1,5,0.2838235294117647,0.25098039215686274,0.13529411764705881
53,0,27,0.27254901960784317,0.3058823529411765,0.3215686274509804
86,2,3,0.48823529411764705,0.40588235294117647,0.34901960784313724
10,3,18,0.48235294117647054,0.3764705882352941,0.27254901960784317
22,22,57,0.5725490196078431,0.5254901960784314,0.403921568627451
10,6,23,0.4745098039215686,0.3686274509803922,0.27450980392156865
32,60,21,0.5098039215686274,0.4666666666666667,0.44313725490196076
58,53,3,0.6019607843137255,0.5176470588235295,0.4627450980392157
48,0,21,0.2758169934640523,0.30718954248366015,0.32679738562091504
36,1,70,0.403921568627451,0.3568627450980392,0.30196078431372547
24,4,64,0.10784313725490198,0.14274509803921567,0.15607843137254904
10,6,22,0.4627450980392157,0.3607843137254902,0.2529411764705882
107,39,32,0.596078431372549,0.49673202614379086,0.42091503267973857
88,4,61,0.44313725490196076,0.38823529411764707,0.3254901960784314
10,8,26,0.42549019607843136,0.3215686274509804,0.23333333333333334
64,60,32,0.5542483660130719,0.49498910675381264,0.46405228758169936
10,7,26,0.44313725490196076,0.3359477124183006,0.24052287581699347
49,17,62,0.20007130124777173,0.33754010695187175,0.3512299465240642
10,7,25,0.5058823529411764,0.396078431372549,0.30196078431372547
99,26,49,0.5320261437908497,0.45882352941176474,0.39215686274509803
78,13,51,0.14814814814814814,0.14520697167755992,0.13246187363834433
99,29,49,0.6457516339869281,0.5738562091503268,0.5215686274509804
10,4,27,0.48627450980392156,0.3764705882352941,0.29411764705882354
61,0,60,0.25882352941176473,0.29411764705882354,0.3137254901960784
35,8,49,0.16862745098039217,0.14901960784313725,0.12941176470588237
35,15,65,0.2901960784313726,0.5235294117647059,0.5372549019607843
113,57,5,0.5637254901960784,0.4843137254901961,0.4392156862745098
10,3,27,0.4640522875816993,0.35947712418300654,0.2627450980392157
10,3,28,0.4549019607843137,0.34901960784313724,0.24705882352941178
86,28,49,0.5678431372549021,0.48313725490196074,0.42823529411764705
10,3,23,0.49019607843137253,0.38823529411764707,0.2980392156862745
10,2,22,0.3764705882352941,0.3058823529411765,0.18627450980392157
10,2,20,0.42091503267973857,0.33202614379084966,0.2235294117647059
10,2,19,0.4588235294117647,0.35294117647058826,0.23921568627450981
116,51,6,0.5856209150326798,0.4928104575163399,0.4457516339869281
115,53,5,0.5223529411764706,0.4596078431372549,0.4243137254901961
10,2,17,0.41568627450980394,0.32679738562091504,0.19999999999999998
17,58,0,0.6039215686274509,0.5215686274509804,0.46862745098039216
45,3,68,0.0326797385620915,0.10392156862745099,0.13856209150326795
10,1,16,0.2593137254901961,0.2607843137254902,0.12941176470588237
83,56,46,0.534640522875817,0.4732026143790849,0.4418300653594771
21,3,49,0.4294117647058824,0.3392156862745098,0.2647058823529412
53,4,3,0.5333333333333333,0.44313725490196076,0.3803921568627451
10,1,18,0.30980392156862746,0.2803921568627451,0.12941176470588237
57,49,49,0.592156862745098,0.49411764705882355,0.45098039215686275
103,5,49,0.4607843137254902,0.37058823529411766,0.3058823529411765
57,1,74,0.44705882352941173,0.396078431372549,0.3424836601307189
10,2,25,0.34509803921568627,0.2901960784313725,0.16666666666666669
82,8,51,0.1568627450980392,0.14901960784313725,0.12941176470588237
10,2,27,0.3764705882352941,0.30196078431372547,0.17647058823529413
102,12,3,0.5901960784313726,0.5098039215686274,0.4568627450980392
10,3,30,0.44313725490196076,0.34509803921568627,0.22745098039215686
18,60,28,0.5006535947712418,0.4588235294117647,0.43790849673202614
10,1,27,0.257843137254902,0.25882352941176473,0.13823529411764707
10,1,32,0.2411764705882353,0.24379084967320264,0.14117647058823532
10,1,33,0.28235294117647064,0.25882352941176473,0.14640522875816994
53,0,7,0.2549019607843137,0.2954248366013072,0.3137254901960784
103,2,66,0.13137254901960785,0.13137254901960785,0.12745098039215685
107,23,41,0.5803921568627451,0.48104575163398694,0.42091503267973857
10,1,23,0.24705882352941178,0.2617647058823529,0.11568627450980393
10,1,21,0.24836601307189546,0.25686274509803925,0.11372549019607843
10,1,14,0.265359477124183,0.26666666666666666,0.1431372549019608
109,0,60,0.26666666666666666,0.2980392156862745,0.3176470588235294
10,1,11,0.26323529411764707,0.27009803921568626,0.13480392156862747
51,55,49,0.6294117647058823,0.5431372549019609,0.5078431372549019
113,47,47,0.4029411764705883,0.3519607843137255,0.2946078431372549
18,57,0,0.6039215686274509,0.5176470588235293,0.46013071895424834
10,1,9,0.27394957983193274,0.2700280112044818,0.12100840336134455
52,49,3,0.6196078431372549,0.5333333333333333,0.4745098039215686
80,7,51,0.1568627450980392,0.14901960784313725,0.12941176470588237
21,0,73,0.28431372549019607,0.3156862745098039,0.3333333333333333
107,8,45,0.5686274509803921,0.47058823529411764,0.4137254901960784
90,24,81,0.30054234459741364,0.2523153942428037,0.20308719232373804
10,5,19,0.5137254901960784,0.403921568627451,0.30980392156862746
107,48,51,0.3986928104575163,0.33137254901960783,0.2849673202614379
49,0,75,0.2784313725490196,0.30980392156862746,0.3254901960784314
10,22,24,0.615686274509804,0.5137254901960784,0.4196078431372549
10,21,23,0.6392156862745098,0.5294117647058824,0.43137254901960786
10,16,19,0.5673202614379085,0.4666666666666666,0.3869281045751634
116,49,33,0.5493212669683258,0.46093514328808455,0.4099547511312217
70,28,52,0.47696078431372546,0.3882352941176471,0.3161764705882353
10,15,18,0.5895424836601307,0.4836601307189543,0.39738562091503266
70,60,28,0.484313725490196,0.4392156862745098,0.4196078431372549
101,1,64,0.22745098039215686,0.20784313725490197,0.19019607843137254
114,2,82,0.11147915476870351,0.1259090043784503,0.1228631258328573
10,18,19,0.5588235294117647,0.45294117647058824,0.37450980392156863
10,19,20,0.5411764705882353,0.43529411764705883,0.3568627450980392
101,1,70,0.43529411764705883,0.38431372549019605,0.33529411764705885
98,0,40,0.2627450980392157,0.29411764705882354,0.30980392156862746
10,18,17,0.596078431372549,0.4993464052287582,0.4287581699346405
95,27,51,0.46352941176470586,0.3968627450980392,0.3474509803921569
21,29,51,0.29705882352941176,0.30980392156862746,0.2872549019607843
10,16,16,0.6183006535947713,0.530718954248366,0.46274509803921565
91,7,49,0.3843137254901961,0.30980392156862746,0.24705882352941178
10,15,14,0.5598039215686275,0.4519607843137255,0.3784313725490196
10,14,12,0.5790849673202615,0.4705882352941176,0.3908496732026144
10,15,9,0.5647058823529412,0.4549019607843137,0.37254901960784315
10,17,15,0.596078431372549,0.5011764705882353,0.4337254901960784
86,5,59,0.23137254901960785,0.21568627450980393,0.20392156862745098
69,56,40,0.4812549019607838,0.42674509803921545,0.404313725490196
10,20,22,0.5019607843137255,0.40784313725490196,0.3333333333333333
62,47,48,0.645012787723785,0.5672634271099745,0.4995737425404945
10,23,9,0.5607843137254902,0.4549019607843137,0.3764705882352941
93,9,60,0.05372549019607843,0.19215686274509805,0.2235294117647059
89,63,32,0.5872549019607843,0.5137254901960784,0.4745098039215686
10,1,20,0.23823529411764705,0.2519607843137255,0.11666666666666667
95,3,65,0.01751633986928105,0.048888888888888885,0.06875816993464051
10,1,30,0.24,0.243921568627451,0.14196078431372547
19,60,37,0.45098039215686275,0.4137254901960784,0.4019607843137255
37,56,41,0.5627450980392157,0.49215686274509807,0.44901960784313727
14,0,13,0.27254901960784317,0.3058823529411765,0.3235294117647059
16,60,38,0.4745098039215686,0.4392156862745098,0.4235294117647059
37,20,57,0.4460784313725491,0.3779411764705881,0.32426470588235295
76,25,51,0.48123249299719895,0.41288515406162457,0.350140056022409
15,0,12,0.27450980392156865,0.3058823529411765,0.3254901960784314
95,60,6,0.5266106442577031,0.4705882352941177,0.44705882352941184
85,0,25,0.27450980392156865,0.3058823529411765,0.3215686274509804
60,48,3,0.611764705882353,0.5313725490196078,0.47843137254901963
106,56,41,0.5588235294117647,0.48627450980392156,0.4542483660130719
83,6,67,0.3697737556561083,0.33387631975867255,0.2967722473604827
15,0,11,0.2718954248366013,0.3032679738562092,0.3215686274509804
81,5,51,0.1607843137254902,0.14901960784313725,0.12941176470588237
13,0,12,0.27254901960784317,0.3058823529411765,0.3235294117647059
68,3,3,0.5019607843137255,0.41568627450980394,0.35294117647058826
107,0,67,0.26666666666666666,0.3006535947712418,0.31633986928104574
12,0,13,0.27254901960784317,0.307843137254902,0.32745098039215687
11,0,12,0.27450980392156865,0.3058823529411765,0.3254901960784314
10,0,12,0.27450980392156865,0.307843137254902,0.32745098039215687
11,0,11,0.27450980392156865,0.3058823529411765,0.3241830065359477
94,54,42,0.4524509803921569,0.40882352941176464,0.38480392156862747
95,45,52,0.6372549019607843,0.5647058823529412,0.5176470588235293
111,25,81,0.12941176470588237,0.10980392156862745,0.0784313725490196
10,0,11,0.2679738562091503,0.3006535947712418,0.31895424836601305
18,60,11,0.48627450980392156,0.4470588235294118,0.4235294117647059
9,0,13,0.2784313725490196,0.3111111111111111,0.3281045751633987
13,49,52,0.6457516339869281,0.5660130718954248,0.5241830065359477
9,0,12,0.27320261437908494,0.3058823529411765,0.3241830065359477
9,0,11,0.2676470588235294,0.2980392156862745,0.3176470588235294
22,0,70,0.27647058823529413,0.307843137254902,0.32745098039215687
113,42,34,0.6078431372549019,0.5686274509803921,0.5450980392156862
96,45,3,0.5986928104575163,0.5137254901960784,0.46274509803921565
8,0,11,0.26666666666666666,0.2980392156862745,0.3176470588235294
24,19,58,0.5509803921568628,0.4745098039215686,0.4215686274509804
33,17,63,0.1627450980392157,0.3431372549019608,0.35490196078431374
8,0,10,0.2656862745098039,0.29705882352941176,0.31470588235294117
77,0,30,0.26862745098039215,0.3,0.3176470588235294
31,60,47,0.5156862745098039,0.4745098039215686,0.44901960784313727
48,15,54,0.3220915032679738,0.2671895424836601,0.20496732026143796
7,0,9,0.27254901960784317,0.303921568627451,0.3215686274509804
115,23,82,0.526797385620915,0.4339869281045752,0.28366013071895424
7,0,11,0.27058823529411763,0.30196078431372547,0.3215686274509804
89,34,49,0.598529411764706,0.517156862745098,0.4705882352941177
89,58,35,0.4901960784313726,0.4490196078431372,0.39803921568627454
5,0,12,0.27450980392156865,0.3058823529411765,0.3281045751633987
5,0,11,0.2718954248366013,0.3032679738562092,0.32287581699346407
103,9,86,0.07058823529411765,0.07686274509803921,0.08078431372549019
4,0,12,0.27450980392156865,0.307843137254902,0.32941176470588235
23,0,12,0.2627450980392157,0.2980392156862745,0.3137254901960784
4,0,13,0.2718954248366013,0.3032679738562091,0.32287581699346407
21,60,21,0.5294117647058824,0.49019607843137253,0.4666666666666667
3,0,13,0.27254901960784317,0.30686274509803924,0.3264705882352941
3,0,14,0.27058823529411763,0.3058823529411765,0.3254901960784314
32,25,56,0.1531718569780853,0.11764705882352941,0.0530565167243368
2,0,15,0.27156862745098037,0.30686274509803924,0.32745098039215687
79,25,70,0.2716775599128541,0.23442265795206974,0.2030501089324618
67,13,49,0.16666666666666669,0.16666666666666669,0.15490196078431373
1,0,13,0.28313725490196073,0.316078431372549,0.3380392156862745
2,0,11,0.27254901960784317,0.307843137254902,0.32941176470588235
1,0,12,0.28104575163398693,0.31241830065359477,0.32679738562091504
88,0,13,0.27058823529411763,0.30196078431372547,0.3176470588235294
70,11,51,0.1568627450980392,0.14901960784313725,0.12941176470588237
1,0,10,0.28431372549019607,0.3137254901960784,0.33333333333333337
1,0,6,0.3013071895424837,0.3300653594771241,0.34379084967320267
72,0,14,0.2647058823529412,0.296078431372549,0.31176470588235294
1,0,7,0.29490196078431374,0.3247058823529412,0.3411764705882353
24,60,50,0.5660130718954248,0.5019607843137255,0.4732026143790849
1,0,8,0.28366013071895424,0.3137254901960784,0.33202614379084966
1,0,9,0.2823529411764706,0.31241830065359477,0.32941176470588235
114,52,43,0.4776470588235294,0.39568627450980387,0.33843137254901967
17,0,26,0.27647058823529413,0.307843137254902,0.32745098039215687
15,0,13,0.2735294117647059,0.3058823529411765,0.32450980392156864
99,51,52,0.6248366013071895,0.5392156862745098,0.4869281045751634
67,10,51,0.1568627450980392,0.14901960784313725,0.12941176470588237
43,29,57,0.3803921568627451,0.3176470588235294,0.25098039215686274
29,29,56,0.3163398692810458,0.257516339869281,0.20784313725490197
42,29,49,0.5237472766884532,0.4601307189542483,0.3525054466230937
83,24,72,0.16259426847662142,0.13514328808446457,0.11372549019607842
16,0,12,0.27450980392156865,0.3058823529411765,0.3254901960784314
110,1,49,0.4345098039215687,0.37882352941176467,0.32313725490196077
16,0,13,0.27058823529411763,0.3058823529411765,0.3215686274509804
17,0,12,0.27254901960784317,0.3058823529411765,0.3254901960784314
18,0,11,0.27450980392156865,0.30980392156862746,0.32941176470588235
27,60,30,0.5372549019607843,0.49411764705882355,0.47843137254901963
41,1,77,0.4549019607843137,0.4,0.34509803921568627
20,32,49,0.6379084967320261,0.5633986928104575,0.5137254901960785
18,0,13,0.26666666666666666,0.30196078431372547,0.3176470588235294
24,40,49,0.6444444444444445,0.5738562091503269,0.5241830065359477
47,28,3,0.6039215686274509,0.5117647058823529,0.44705882352941173
18,0,14,0.26666666666666666,0.3006535947712418,0.31633986928104574
46,6,51,0.1596638655462185,0.15126050420168066,0.13277310924369748
39,19,56,0.3991285403050109,0.3564270152505447,0.27058823529411763
71,0,31,0.26862745098039215,0.30196078431372547,0.3196078431372549
97,60,13,0.5215686274509803,0.45882352941176474,0.4274509803921569
20,0,13,0.26666666666666666,0.30196078431372547,0.3176470588235294
80,30,48,0.4720142602495543,0.4007130124777183,0.3012477718360071
82,24,81,0.30803921568627446,0.25392156862745097,0.19647058823529412
20,0,15,0.26666666666666666,0.3,0.3156862745098039
31,60,25,0.44509803921568625,0.4117647058823529,0.39803921568627454
50,1,51,0.16134453781512606,0.1495798319327731,0.13109243697478992
60,49,3,0.6137254901960785,0.5333333333333333,0.4784313725490196
19,0,16,0.2647058823529412,0.2980392156862745,0.3137254901960784
9,60,29,0.4627450980392157,0.42745098039215684,0.4117647058823529
18,0,15,0.265359477124183,0.2980392156862745,0.3150326797385621
27,46,52,0.5333333333333333,0.46568627450980393,0.4264705882352941
17,0,16,0.26666666666666666,0.30196078431372547,0.3176470588235294
69,16,52,0.18676470588235294,0.16421568627450978,0.13970588235294118
58,3,51,0.1588235294117647,0.14901960784313725,0.12941176470588237
17,0,15,0.26666666666666666,0.2980392156862745,0.3176470588235294
66,41,3,0.6078431372549019,0.5235294117647059,0.4666666666666667
18,0,16,0.26666666666666666,0.30196078431372547,0.3176470588235294
107,40,43,0.6019607843137255,0.5098039215686274,0.45
116,50,40,0.5418300653594771,0.45816993464052286,0.40915032679738556
18,0,17,0.26666666666666666,0.30196078431372547,0.3176470588235294
98,0,48,0.2627450980392157,0.29411764705882354,0.30980392156862746
19,0,17,0.2647058823529412,0.3,0.3156862745098039
50,1,82,0.4470588235294118,0.3843137254901961,0.32941176470588235
63,55,49,0.6323529411764706,0.5450980392156863,0.5107843137254902
20,0,16,0.26666666666666666,0.3006535947712418,0.31633986928104574
75,25,50,0.4993464052287582,0.4366013071895425,0.3790849673202614
32,40,49,0.6470588235294117,0.5754901960784313,0.5235294117647059
48,29,52,0.5098039215686274,0.44313725490196076,0.403921568627451
21,0,17,0.2627450980392157,0.2980392156862745,0.3150326797385621
22,0,16,0.2647058823529412,0.3,0.3156862745098039
82,65,39,0.5189542483660131,0.4797385620915033,0.46535947712418296
28,11,51,0.13669467787114845,0.1515406162464986,0.15686274509803919
24,0,16,0.27450980392156865,0.3058823529411765,0.3215686274509804
22,60,28,0.5333333333333333,0.49019607843137253,0.4745098039215686
24,0,17,0.27450980392156865,0.3058823529411765,0.3215686274509804
47,0,75,0.2768627450980392,0.3058823529411765,0.3247058823529412
40,9,68,0.03137254901960784,0.2257080610021787,0.265359477124183
25,0,18,0.27450980392156865,0.3058823529411765,0.3254901960784314
36,38,3,0.6078431372549019,0.526797385620915,0.4732026143790849
69,7,68,0.021568627450980392,0.18480392156862746,0.2161764705882353
21,60,18,0.5294117647058824,0.49411764705882355,0.4745098039215686
30,8,49,0.17254901960784313,0.15098039215686276,0.13529411764705884
26,0,18,0.2797385620915033,0.3111111111111111,0.3281045751633987
12,26,54,0.5269607843137255,0.4362745098039217,0.3926470588235294
26,0,19,0.27450980392156865,0.3058823529411765,0.3254901960784314
75,17,59,0.17294117647058826,0.26784313725490194,0.2627450980392157
35,29,56,0.18823529411764706,0.16514161220043574,0.15250544662309368
27,0,19,0.27450980392156865,0.3058823529411765,0.3254901960784314
89,60,10,0.5137254901960784,0.47058823529411764,0.45098039215686275
28,0,19,0.27058823529411763,0.30196078431372547,0.3215686274509804
13,1,54,0.3862745098039216,0.3176470588235294,0.25882352941176473
33,42,1,0.5950980392156863,0.5137254901960784,0.46176470588235297
29,0,18,0.2784313725490196,0.30980392156862746,0.32941176470588235
58,0,23,0.269281045751634,0.3032679738562092,0.3215686274509804
30,0,18,0.27450980392156865,0.30980392156862746,0.32745098039215687
53,60,31,0.5196078431372548,0.4843137254901961,0.47058823529411764
84,1,59,0.3568627450980392,0.34901960784313724,0.30980392156862746
30,0,17,0.27254901960784317,0.3058823529411765,0.32156862745098036
31,0,18,0.27254901960784317,0.30686274509803924,0.3215686274509804
31,0,16,0.2627450980392157,0.29411764705882354,0.3088235294117647
89,15,65,0.3032679738562092,0.5372549019607843,0.5594771241830064
107,10,6,0.5480392156862746,0.45588235294117646,0.3931372549019608
36,60,12,0.5215686274509803,0.47712418300653586,0.4562091503267974
39,32,49,0.5754901960784313,0.4916666666666667,0.44117647058823534
32,0,17,0.269281045751634,0.3006535947712418,0.31633986928104574
72,43,49,0.5992156862745098,0.5176470588235295,0.47294117647058825
30,0,16,0.2627450980392157,0.29411764705882354,0.30980392156862746
96,60,30,0.5333333333333333,0.49411764705882355,0.47450980392156855
38,15,65,0.303921568627451,0.5372549019607843,0.5470588235294118
30,0,14,0.25882352941176473,0.28823529411764703,0.307843137254902
48,41,49,0.5784313725490197,0.48774509803921573,0.4426470588235294
30,0,13,0.26176470588235295,0.2931372549019608,0.3107843137254902
96,1,50,0.28627450980392155,0.24705882352941178,0.20392156862745098
29,0,14,0.2627450980392157,0.29411764705882354,0.30980392156862746
86,7,67,0.4198529411764708,0.36225490196078436,0.3165441176470589
29,0,13,0.2705882352941177,0.3019607843137255,0.32156862745098036
107,57,31,0.5464052287581699,0.4594771241830065,0.39999999999999997
29,0,12,0.273202614379085,0.3058823529411765,0.32156862745098036
31,0,10,0.2627450980392157,0.296078431372549,0.31176470588235294
61,11,68,0.027450980392156862,0.25882352941176473,0.2980392156862745
31,0,11,0.2647058823529412,0.2980392156862745,0.3137254901960784
91,65,40,0.503921568627451,0.4666666666666667,0.45294117647058824
77,15,54,0.16078431372549024,0.22401960784313724,0.20931372549019606
31,0,9,0.2627450980392157,0.29411764705882354,0.30980392156862746
82,60,6,0.5333333333333333,0.4950980392156863,0.47352941176470587
31,0,8,0.2705882352941177,0.30490196078431375,0.3205882352941176
36,60,20,0.5215686274509804,0.4823529411764706,0.47058823529411764
32,0,8,0.27647058823529413,0.3107843137254902,0.32450980392156864
116,43,50,0.5823529411764705,0.5029411764705882,0.45294117647058824
31,0,7,0.27647058823529413,0.31176470588235294,0.32745098039215687
30,0,8,0.269281045751634,0.30457516339869284,0.32026143790849676
32,60,25,0.4052287581699347,0.3686274509803922,0.3542483660130719
30,0,7,0.27999999999999997,0.3168627450980392,0.33333333333333337
109,0,34,0.25882352941176473,0.2901960784313726,0.3058823529411765
48,0,25,0.27450980392156865,0.3058823529411765,0.3254901960784314
45,25,78,0.42111613876319764,0.3577677224736048,0.2865761689291101
29,0,6,0.2862745098039216,0.3225490196078431,0.3392156862745098
107,10,20,0.5568627450980392,0.4607843137254902,0.39019607843137255
77,6,3,0.5666666666666667,0.4803921568627451,0.4235294117647059
102,8,81,0.2546218487394957,0.24733893557422967,0.24985994397759104
26,2,51,0.14851359898798228,0.14320050600885514,0.13257432005060088
27,0,6,0.2823529411764706,0.3176470588235294,0.3333333333333333
101,48,51,0.40098039215686276,0.33725490196078434,0.29313725490196074
109,1,60,0.33464052287581697,0.29673202614379085,0.2575163398692811
24,0,24,0.2784313725490196,0.307843137254902,0.32745098039215687
107,24,38,0.592156862745098,0.4980392156862745,0.43333333333333335
28,0,7,0.27254901960784317,0.307843137254902,0.3235294117647059
60,0,33,0.2627450980392157,0.2980392156862745,0.3176470588235294
28,0,8,0.27450980392156865,0.307843137254902,0.3215686274509804
64,0,21,0.27058823529411763,0.3058823529411765,0.32450980392156864
102,23,52,0.6130718954248365,0.5477124183006535,0.47843137254901963
30,0,9,0.2627450980392157,0.29673202614379085,0.30980392156862746
76,24,82,0.3788235294117646,0.3139869281045751,0.25986928104575163
29,0,9,0.26666666666666666,0.2980392156862745,0.3137254901960784
28,0,9,0.26862745098039215,0.30196078431372547,0.3176470588235294
116,2,82,0.2584150326797386,0.19387254901960782,0.12467320261437907
27,0,8,0.27058823529411763,0.30457516339869284,0.32026143790849676
27,0,7,0.269281045751634,0.30457516339869284,0.32026143790849676
80,39,3,0.6039215686274509,0.5215686274509804,0.4666666666666667
72,30,48,0.41982570806100217,0.3394335511982571,0.25795206971677553
26,0,7,0.26666666666666666,0.30196078431372547,0.3137254901960784
26,0,5,0.28758169934640526,0.32418300653594767,0.3398692810457516
43,26,52,0.3558823529411765,0.3058823529411765,0.2411764705882353
84,56,46,0.5313725490196078,0.47058823529411764,0.44313725490196076
26,0,4,0.31999999999999995,0.3247058823529412,0.31843137254901965
10,30,46,0.6052287581699346,0.5032679738562091,0.4418300653594771
24,0,5,0.2901960784313726,0.3215686274509804,0.32941176470588235
11,1,73,0.4823529411764706,0.41568627450980394,0.35294117647058826
29,48,0,0.6039215686274509,0.5215686274509804,0.4666666666666667
25,0,4,0.3254901960784314,0.3215686274509804,0.312156862745098
16,12,49,0.40784313725490196,0.3333333333333333,0.2823529411764706
21,0,4,0.30980392156862746,0.3192156862745098,0.31450980392156863
108,0,38,0.2627450980392157,0.2980392156862745,0.30980392156862746
13,0,4,0.29411764705882354,0.3176470588235294,0.3176470588235294
10,1,85,0.465546218487395,0.3971988795518207,0.3322128851540616
12,0,4,0.30490196078431375,0.31176470588235294,0.3029411764705882
9,0,4,0.31058823529411766,0.31450980392156863,0.30666666666666664
8,0,4,0.3176470588235294,0.30980392156862746,0.29150326797385623
7,0,4,0.30745098039215685,0.31529411764705884,0.30823529411764705
6,0,4,0.32222222222222224,0.3111111111111111,0.28627450980392155
11,0,5,0.2823529411764706,0.3176470588235294,0.33202614379084966
11,0,7,0.27647058823529413,0.31176470588235294,0.32745098039215687
107,8,18,0.5490196078431372,0.4549019607843137,0.3908496732026144
33,26,52,0.46535947712418296,0.3803921568627451,0.3019607843137255
79,60,11,0.5372549019607843,0.5058823529411764,0.4823529411764706
114,1,82,0.11073083778966133,0.10409982174688057,0.09625668449197862
12,0,6,0.27450980392156865,0.30980392156862746,0.3254901960784314
12,0,7,0.27647058823529413,0.3107843137254902,0.3284313725490196
13,0,6,0.26862745098039215,0.303921568627451,0.3215686274509804
57,15,66,0.3666666666666667,0.5803921568627451,0.6006535947712418
44,25,52,0.4292335115864528,0.3686274509803921,0.30802139037433157
13,0,7,0.27450980392156865,0.31176470588235294,0.32941176470588235
107,9,6,0.5490196078431373,0.45751633986928103,0.39477124183006534
14,0,7,0.2758169934640523,0.3111111111111111,0.32679738562091504
14,0,8,0.2696078431372549,0.30490196078431375,0.32156862745098036
66,35,3,0.6176470588235294,0.5313725490196078,0.4745098039215686
46,0,34,0.27450980392156865,0.30980392156862746,0.3254901960784314
35,55,0,0.6,0.5241830065359477,0.47189542483660124
41,15,49,0.14313725490196078,0.12352941176470589,0.10980392156862745
15,0,8,0.26862745098039215,0.30196078431372547,0.3196078431372549
15,0,7,0.26666666666666666,0.30196078431372547,0.3196078431372549
83,54,3,0.6078431372549019,0.5254901960784314,0.47843137254901963
14,60,44,0.5411764705882353,0.5019607843137255,0.4797385620915033
16,0,8,0.26666666666666666,0.2980392156862745,0.3176470588235294
39,0,15,0.27647058823529413,0.303921568627451,0.3215686274509804
49,3,3,0.5058823529411764,0.41568627450980394,0.3568627450980392
44,0,31,0.27254901960784317,0.30196078431372547,0.3196078431372549
100,60,16,0.47647058823529415,0.42352941176470593,0.4019607843137255
25,9,51,0.08774509803921567,0.11789215686274511,0.13676470588235293
56,29,54,0.5274509803921569,0.4627450980392157,0.4235294117647059
102,8,3,0.5725490196078431,0.5019607843137255,0.45098039215686275
17,0,8,0.26862745098039215,0.303921568627451,0.3215686274509804
46,0,5,0.2797385620915033,0.3137254901960784,0.330718954248366
18,0,8,0.273202614379085,0.3084967320261438,0.32287581699346407
98,0,43,0.2568627450980392,0.29215686274509806,0.307843137254902
19,0,8,0.273202614379085,0.3084967320261438,0.32679738562091504
107,6,20,0.5411764705882353,0.44313725490196076,0.37777777777777777
18,0,9,0.27254901960784317,0.3088235294117647,0.3235294117647059
75,9,65,0.24901960784313726,0.21764705882352942,0.19607843137254904
50,53,3,0.5973856209150327,0.5137254901960784,0.4562091503267974
20,0,9,0.27058823529411763,0.307843137254902,0.3235294117647059
53,0,15,0.2627450980392157,0.2980392156862745,0.3137254901960784
20,0,8,0.27058823529411763,0.3058823529411765,0.3235294117647059
82,56,42,0.523921568627451,0.4650980392156863,0.4427450980392158
72,7,51,0.15686274509803916,0.14901960784313723,0.12941176470588237
96,60,5,0.5286274509803921,0.4698039215686275,0.4415686274509804
110,60,5,0.515032679738562,0.45098039215686275,0.4235294117647059
80,0,63,0.26666666666666666,0.2980392156862745,0.3137254901960784
71,56,42,0.5450980392156863,0.4803921568627451,0.45294117647058824
21,0,9,0.2715686274509804,0.3058823529411765,0.32254901960784316
107,53,42,0.5477124183006535,0.4823529411764706,0.45294117647058824
21,0,8,0.27450980392156865,0.30980392156862746,0.32941176470588235
60,36,3,0.6104575163398693,0.5241830065359477,0.4666666666666666
107,30,19,0.5882352941176471,0.4980392156862745,0.4294117647058824
55,60,31,0.5132897603485839,0.47973856209150323,0.46710239651416124
110,24,82,0.1615433270082226,0.13491461100569263,0.09500316255534463
22,0,9,0.27058823529411763,0.3058823529411765,0.3235294117647059
23,0,8,0.2679738562091503,0.3032679738562092,0.3202614379084967
33,0,7,0.2797385620915033,0.3137254901960784,0.330718954248366
23,0,9,0.2679738562091503,0.30196078431372547,0.3176470588235294
106,2,63,0.1392156862745098,0.1392156862745098,0.13333333333333336
107,15,35,0.5411764705882353,0.44705882352941173,0.3843137254901961
25,0,9,0.2627450980392157,0.2980392156862745,0.3137254901960784
35,60,7,0.5450980392156863,0.4980392156862745,0.4745098039215686
90,53,51,0.5411764705882353,0.4758169934640522,0.4339869281045752
25,0,8,0.26666666666666666,0.3,0.3156862745098039
26,0,8,0.2679738562091503,0.3032679738562091,0.31895424836601305
24,0,7,0.26666666666666666,0.30196078431372547,0.3176470588235294
24,0,6,0.27450980392156865,0.3058823529411765,0.32156862745098036
72,11,51,0.15686274509803916,0.14901960784313723,0.12941176470588237
78,43,3,0.6078431372549019,0.5254901960784314,0.4745098039215686
23,0,6,0.2718954248366013,0.30718954248366015,0.32287581699346407
76,39,3,0.6019607843137255,0.5176470588235295,0.4627450980392157
12,1,66,0.4666666666666667,0.40784313725490196,0.3509803921568627
23,0,5,0.2797385620915033,0.3137254901960784,0.3281045751633987
33,0,10,0.2627450980392157,0.29411764705882354,0.30980392156862746
19,0,5,0.2803921568627451,0.3176470588235294,0.32941176470588235
38,60,3,0.5450980392156862,0.4980392156862745,0.4745098039215686
103,9,82,0.056535947712418294,0.11405228758169934,0.16111111111111112
39,30,49,0.538562091503268,0.4562091503267974,0.4026143790849673
4,0,8,0.2797385620915033,0.3137254901960784,0.32941176470588235
66,0,72,0.25098039215686274,0.2823529411764706,0.2980392156862745
18,0,5,0.2774509803921569,0.3127450980392157,0.3284313725490196
81,22,52,0.24705882352941178,0.19215686274509802,0.12392156862745099
85,5,64,0.35812776723592643,0.3137254901960785,0.27001897533206853
17,0,5,0.27450980392156865,0.30980392156862746,0.3254901960784314
45,16,55,0.27198879551820726,0.25109243697478995,0.20952380952380942
46,60,34,0.5071895424836601,0.4797385620915033,0.4705882352941176
16,0,4,0.28627450980392155,0.3137254901960784,0.3235294117647059
15,0,5,0.27450980392156865,0.3137254901960784,0.32941176470588235
109,56,41,0.5675070028011204,0.4873949579831933,0.45770308123249304
16,0,6,0.26666666666666666,0.30457516339869284,0.32026143790849676
15,0,6,0.27058823529411763,0.3058823529411765,0.3235294117647059
27,60,46,0.5235294117647059,0.4843137254901961,0.4666666666666667
17,0,7,0.26666666666666666,0.30196078431372547,0.3176470588235294
18,0,7,0.27450980392156865,0.30980392156862746,0.3254901960784314
115,46,44,0.48954248366013076,0.4006535947712418,0.349673202614379
45,16,54,0.2591036414565826,0.20812324929971995,0.13697478991596637
68,14,51,0.11568627450980391,0.14274509803921567,0.14235294117647057
69,4,3,0.5529411764705883,0.4627450980392157,0.4
19,0,7,0.27647058823529413,0.3137254901960784,0.32941176470588235
75,14,51,0.13398692810457516,0.14640522875816994,0.13921568627450978
109,25,82,0.20784313725490197,0.1568627450980392,0.06666666666666667
19,0,6,0.27254901960784317,0.307843137254902,0.3254901960784314
30,1,86,0.4261437908496732,0.36601307189542487,0.30980392156862746
20,0,7,0.27450980392156865,0.30980392156862746,0.3281045751633987
22,0,7,0.27254901960784317,0.30980392156862746,0.3254901960784314
4,0,10,0.27254901960784317,0.303921568627451,0.3215686274509804
103,1,70,0.44313725490196076,0.39019607843137255,0.3431372549019608
88,5,3,0.5490196078431372,0.46535947712418296,0.411764705882353
23,0,7,0.26862745098039215,0.303921568627451,0.3196078431372549
72,15,54,0.1801470588235294,0.21666666666666673,0.21299019607843145
93,3,59,0.07352941176470588,0.1264705882352941,0.1392156862745098
22,0,6,0.27450980392156865,0.30980392156862746,0.3254901960784314
22,0,5,0.2803921568627451,0.3156862745098039,0.33137254901960783
43,0,8,0.2784313725490196,0.30980392156862746,0.32941176470588235
78,1,60,0.3235294117647059,0.296078431372549,0.2549019607843137
21,0,6,0.2784313725490196,0.3137254901960784,0.32941176470588235
38,58,35,0.6,0.5235294117647059,0.48627450980392156
17,0,6,0.26666666666666666,0.3058823529411765,0.3215686274509804
26,0,9,0.26666666666666666,0.30196078431372547,0.3176470588235294
47,1,72,0.42745098039215684,0.3764705882352941,0.3176470588235294
41,22,56,0.20030165912518857,0.17496229260935142,0.060935143288084456
24,0,11,0.2627450980392157,0.29411764705882354,0.3137254901960784
102,60,9,0.522875816993464,0.46928104575163404,0.4444444444444444
59,1,73,0.42745098039215684,0.37973856209150325,0.32614379084967315
85,4,65,0.41254901960784307,0.3588235294117647,0.2988235294117647
54,60,25,0.5372549019607843,0.5019607843137255,0.4823529411764706
11,0,23,0.27450980392156865,0.3058823529411765,0.3254901960784314
24,0,12,0.2627450980392157,0.2980392156862745,0.3156862745098039
87,50,52,0.6352941176470588,0.557843137254902,0.5117647058823529
25,0,13,0.26666666666666666,0.2980392156862745,0.3176470588235294
27,0,13,0.27712418300653596,0.3084967320261438,0.32679738562091504
89,23,3,0.6137254901960785,0.5235294117647059,0.46862745098039216
28,0,14,0.27058823529411763,0.30196078431372547,0.3176470588235294
89,9,3,0.592156862745098,0.5098039215686274,0.4588235294117647
36,12,68,0.043137254901960784,0.2784313725490196,0.3254901960784314
27,0,14,0.27450980392156865,0.3058823529411765,0.3215686274509804
82,0,30,0.2627450980392157,0.29411764705882354,0.3137254901960784
13,0,19,0.27058823529411763,0.30196078431372547,0.3215686274509804
67,0,61,0.2627450980392157,0.2980392156862745,0.3137254901960784
27,0,16,0.27647058823529413,0.307843137254902,0.3235294117647059
58,60,14,0.5529411764705883,0.5078431372549019,0.4823529411764706
78,9,67,0.37510656436487644,0.3414322250639389,0.30920716112531993
27,0,15,0.27450980392156865,0.3058823529411765,0.3215686274509804
26,0,16,0.27450980392156865,0.307843137254902,0.3254901960784314
35,1,3,0.4418300653594771,0.35555555555555557,0.2888888888888889
26,0,15,0.2784313725490196,0.30980392156862746,0.32941176470588235
28,5,68,0.0196078431372549,0.15032679738562094,0.18169934640522878
106,39,49,0.6470588235294118,0.5725490196078431,0.5107843137254902
84,1,61,0.30980392156862746,0.3215686274509804,0.29411764705882354
72,11,68,0.13464052287581701,0.3010893246187362,0.32752360203340597
26,0,14,0.27647058823529413,0.307843137254902,0.32941176470588235
33,60,37,0.5387254901960783,0.47450980392156866,0.4411764705882353
109,1,16,0.36993464052287583,0.3176470588235294,0.26666666666666666
25,0,14,0.27254901960784317,0.303921568627451,0.3235294117647059
81,25,70,0.2554621848739495,0.21577964519140988,0.1823529411764707
24,0,13,0.26666666666666666,0.2980392156862745,0.3176470588235294
23,0,13,0.2627450980392157,0.296078431372549,0.3137254901960784
93,62,41,0.6222222222222222,0.5437908496732026,0.5032679738562091
23,0,11,0.26405228758169935,0.2980392156862745,0.3137254901960784
33,29,49,0.49978213507625274,0.4374727668845316,0.39041394335511986
116,11,81,0.5189542483660131,0.44313725490196076,0.2823529411764706
23,0,10,0.26666666666666666,0.2980392156862745,0.3137254901960784
81,17,3,0.6078431372549019,0.5215686274509804,0.4666666666666667
57,33,49,0.596078431372549,0.5019607843137255,0.45098039215686275
33,10,51,0.1477124183006536,0.1477124183006536,0.13725490196078433
54,49,3,0.6098039215686275,0.5254901960784314,0.46862745098039216
22,0,10,0.26666666666666666,0.3006535947712418,0.3176470588235294
83,1,85,0.41568627450980383,0.3585434173669468,0.30700280112044825
116,47,22,0.6065359477124183,0.5124183006535947,0.46274509803921565
21,0,10,0.26666666666666666,0.30196078431372547,0.3176470588235294
40,7,68,0.025882352941176467,0.19450980392156864,0.23490196078431377
52,16,53,0.21568627450980393,0.1823529411764706,0.1450980392156863
29,29,51,0.2901960784313726,0.3058823529411765,0.2823529411764706
20,0,11,0.269281045751634,0.30457516339869284,0.3202614379084967
19,16,56,0.1411764705882353,0.13137254901960785,0.12941176470588234
21,0,12,0.2627450980392157,0.2980392156862745,0.3137254901960784
37,60,18,0.47058823529411764,0.42745098039215684,0.4117647058823529
6,60,35,0.5862745098039216,0.4901960784313726,0.4549019607843137
21,60,50,0.5647058823529412,0.5058823529411764,0.47450980392156855
24,0,15,0.27058823529411763,0.30457516339869284,0.3202614379084967
94,1,80,0.4457516339869281,0.38954248366013067,0.31895424836601305
25,0,15,0.27647058823529413,0.307843137254902,0.32745098039215687
65,0,37,0.2647058823529412,0.29411764705882354,0.3137254901960784
25,0,16,0.27450980392156865,0.303921568627451,0.3215686274509804
116,47,34,0.596078431372549,0.503921568627451,0.45098039215686275
