x,y,z,r,g,b
43,0,11,0.27581699346405225,0.30522875816993467,0.3235294117647059
41,0,11,0.2661064425770308,0.2980392156862745,0.3148459383753502
40,0,11,0.26715686274509803,0.2985294117647059,0.317156862745098
22,29,18,0.5991596638655461,0.5196078431372549,0.48487394957983193
25,6,24,0.20522875816993466,0.19869281045751633,0.17516339869281047
53,28,21,0.5791855203619908,0.49411764705882355,0.4597285067873304
39,0,11,0.2676470588235294,0.2985294117647059,0.31813725490196076
36,0,11,0.2673202614379085,0.3013071895424837,0.31895424836601305
14,4,24,0.17176470588235293,0.15215686274509804,0.1380392156862745
38,0,13,0.274074074074074,0.3058823529411765,0.32287581699346407
36,0,12,0.27233115468409586,0.306318082788671,0.3237472766884532
35,0,12,0.271078431372549,0.30490196078431375,0.32254901960784316
33,0,12,0.27058823529411763,0.30392156862745096,0.3220588235294118
23,0,3,0.26895424836601306,0.30294117647058816,0.3215686274509804
43,16,24,0.6171568627450977,0.530718954248366,0.4790849673202615
32,0,12,0.269281045751634,0.30457516339869284,0.3235294117647059
31,0,13,0.26862745098039215,0.30196078431372547,0.3215686274509804
32,0,13,0.2690196078431372,0.30352941176470594,0.3207843137254902
33,0,14,0.27394957983193274,0.3086834733893557,0.3277310924369748
35,0,15,0.27170868347338933,0.3042016806722689,0.3238095238095238
39,0,13,0.2733893557422969,0.30476190476190484,0.32212885154061627
42,0,13,0.27352941176470585,0.3053921568627451,0.3235294117647059
31,4,24,0.17712418300653596,0.16470588235294117,0.1450980392156863
43,0,14,0.27282913165266104,0.3030812324929972,0.31988795518207286
45,0,14,0.27647058823529413,0.3058823529411765,0.32254901960784316
46,0,13,0.2714596949891067,0.30413943355119827,0.3193899782135076
55,0,30,0.2627450980392157,0.29673202614379085,0.3150326797385621
52,24,2,0.6030501089324618,0.5167755991285402,0.46448801742919393
48,30,17,0.5142857142857142,0.4697478991596639,0.44957983193277323
46,0,14,0.27385620915032677,0.30457516339869284,0.32026143790849676
47,0,13,0.2718954248366013,0.30457516339869284,0.3206971677559913
47,0,14,0.2758169934640523,0.3084967320261438,0.3241830065359477
48,0,13,0.277361853832442,0.309090909090909,0.3279857397504457
51,0,13,0.27477124183006535,0.3066666666666666,0.32313725490196077
48,0,12,0.27058823529411763,0.30413943355119827,0.3211328976034859
46,0,12,0.2756302521008403,0.30588235294117655,0.3243697478991597
40,33,17,0.4980392156862745,0.45751633986928103,0.4444444444444445
44,0,12,0.27205882352941174,0.3024509803921569,0.31911764705882356
26,1,36,0.4225490196078432,0.3735294117647059,0.31862745098039214
42,0,12,0.27696078431372545,0.30833333333333335,0.32401960784313727
48,0,31,0.2593837535014006,0.2935574229691877,0.3086834733893558
41,0,12,0.27394957983193274,0.30476190476190484,0.3226890756302521
14,1,39,0.4549019607843137,0.4,0.34509803921568627
40,0,12,0.268235294117647,0.2996078431372549,0.3184313725490196
36,0,13,0.27233115468409586,0.3054466230936819,0.3246187363834423
35,0,13,0.27499999999999997,0.3093137254901961,0.328921568627451
35,0,14,0.2764705882352941,0.31029411764705883,0.3284313725490196
48,0,14,0.27777777777777773,0.30980392156862746,0.3261437908496732
47,0,15,0.27499999999999997,0.3073529411764706,0.32303921568627453
26,7,34,0.37351520318272274,0.5163398692810459,0.5418584825234443
47,0,16,0.2751633986928104,0.3065359477124183,0.32222222222222224
47,26,21,0.45336743393009304,0.4115373685706161,0.3872691105427674
46,0,15,0.27058823529411763,0.3009803921568628,0.3166666666666667
56,1,17,0.4503267973856209,0.3908496732026144,0.3300653594771242
45,0,15,0.2718954248366013,0.30196078431372547,0.3176470588235294
44,0,15,0.27124183006535946,0.3026143790849673,0.3183006535947712
45,0,16,0.27124183006535946,0.303921568627451,0.32287581699346407
54,26,23,0.5445751633986927,0.48183006535947714,0.4530718954248367
46,0,16,0.2710239651416122,0.30239651416122004,0.32026143790849676
50,1,39,0.42969187675070025,0.3775910364145658,0.32212885154061627
47,0,17,0.269281045751634,0.3019607843137255,0.318082788671024
44,0,16,0.2683473389355742,0.30084033613445377,0.31988795518207286
42,0,14,0.265359477124183,0.2980392156862745,0.3156862745098039
41,0,15,0.26323529411764707,0.29705882352941176,0.31470588235294117
17,11,29,0.26492374727668844,0.21830065359477124,0.1289760348583878
40,0,16,0.26209150326797387,0.29673202614379085,0.3130718954248366
42,0,16,0.27294117647058824,0.30823529411764705,0.3247058823529412
45,0,17,0.25947712418300656,0.29411764705882354,0.31176470588235294
45,0,18,0.26143790849673204,0.29411764705882354,0.30980392156862746
38,2,24,0.17352941176470588,0.1568627450980392,0.13627450980392158
27,14,27,0.5379084967320261,0.47450980392156866,0.4359477124183006
46,0,18,0.2619607843137255,0.29333333333333333,0.30980392156862746
49,2,34,0.011664152840623419,0.06566113624937153,0.08888888888888885
46,0,19,0.2617647058823529,0.29411764705882354,0.3088235294117647
53,9,26,0.5950980392156862,0.5208333333333334,0.46299019607843145
45,0,19,0.2568627450980392,0.29215686274509806,0.307843137254902
47,0,19,0.2642156862745098,0.29754901960784313,0.3142156862745098
46,0,20,0.2635294117647059,0.29568627450980395,0.30980392156862746
45,0,20,0.26143790849673204,0.2954248366013072,0.3111111111111111
44,0,17,0.26218487394957984,0.29635854341736695,0.31316526610644263
52,4,2,0.5529411764705882,0.5004901960784314,0.45833333333333337
43,0,18,0.25882352941176473,0.29193899782135074,0.3093681917211329
46,0,21,0.268235294117647,0.2988235294117647,0.31137254901960787
41,7,34,0.3562724014336918,0.49795488087708195,0.5210204511912294
31,0,16,0.26509803921568625,0.2996078431372549,0.3176470588235294
48,3,24,0.40616246498599434,0.32941176470588235,0.26778711484593837
46,0,22,0.2676470588235294,0.3,0.3137254901960784
54,21,14,0.5620448179271708,0.4946778711484594,0.45154061624649866
44,0,21,0.2656862745098039,0.3,0.31666666666666665
58,0,13,0.2799999999999999,0.28941176470588226,0.2872549019607843
43,0,19,0.2601307189542484,0.2928104575163399,0.3084967320261438
42,0,18,0.2627450980392157,0.29635854341736695,0.3148459383753502
46,2,32,0.06793168880455396,0.12093611638203645,0.13232131562302316
11,1,36,0.46372549019607845,0.40294117647058825,0.3392156862745098
43,0,20,0.26176470588235295,0.2950980392156863,0.31176470588235294
54,5,23,0.5691176470588235,0.47794117647058826,0.41960784313725485
41,0,18,0.2647058823529412,0.2965686274509804,0.31519607843137254
40,0,17,0.2627450980392157,0.29673202614379085,0.3150326797385621
39,0,16,0.25882352941176473,0.2928104575163399,0.30980392156862746
38,0,16,0.2679738562091503,0.29869281045751633,0.31699346405228757
35,26,24,0.6040041279669764,0.5274716202270385,0.4831372549019607
37,0,15,0.26666666666666666,0.3,0.31666666666666665
41,0,20,0.2549019607843137,0.2888888888888889,0.3058823529411765
53,13,24,0.5574952561669829,0.4753953194180899,0.4164452877925365
40,0,20,0.2647058823529412,0.296078431372549,0.31568627450980397
40,0,19,0.2601307189542484,0.29411764705882354,0.3137254901960784
32,28,22,0.5419607843137254,0.4784313725490196,0.4462745098039216
36,0,17,0.27320261437908494,0.3032679738562092,0.3215686274509804
23,30,17,0.5183006535947712,0.4836601307189543,0.47189542483660135
36,0,16,0.2683473389355742,0.30196078431372547,0.3182072829131653
42,33,17,0.5337690631808278,0.4958605664488018,0.4819172113289761
35,0,17,0.2699346405228758,0.30196078431372547,0.3183006535947712
35,0,18,0.27294117647058824,0.3058823529411765,0.32313725490196077
41,0,21,0.26209150326797387,0.2954248366013072,0.3130718954248366
44,0,22,0.26601307189542484,0.29934640522875816,0.3156862745098039
54,21,8,0.5589388696655134,0.49031141868512124,0.44786620530565174
44,0,23,0.2605042016806723,0.2935574229691877,0.3109243697478992
39,12,26,0.37390849673202564,0.33809150326797344,0.25422222222222196
37,30,12,0.5137254901960784,0.4715686274509804,0.44803921568627453
53,0,8,0.26209150326797387,0.29477124183006537,0.30915032679738563
42,0,22,0.26405228758169935,0.2954248366013072,0.3111111111111111
41,0,23,0.2673202614379085,0.3006535947712418,0.3196078431372549
18,11,29,0.26417112299465245,0.21675579322638147,0.13333333333333333
40,0,21,0.2676470588235294,0.2980392156862745,0.3176470588235294
39,0,20,0.26509803921568625,0.2972549019607843,0.316078431372549
38,0,20,0.2635294117647059,0.2980392156862745,0.3137254901960784
39,0,22,0.268235294117647,0.29960784313725497,0.3176470588235294
44,1,37,0.3992156862745098,0.3461437908496733,0.2969934640522875
37,3,37,0.09005602240896357,0.11120448179271711,0.1289915966386555
40,0,24,0.2603921568627451,0.29490196078431374,0.31450980392156863
42,0,24,0.25980392156862747,0.2950980392156863,0.3127450980392157
32,13,24,0.40575825266815585,0.3392901464383221,0.2794738148423926
44,0,24,0.2618736383442266,0.2954248366013072,0.3128540305010893
24,1,34,0.1925925925925924,0.17373171490818543,0.15343915343915346
44,0,25,0.2603921568627451,0.2938562091503268,0.31215686274509796
43,0,25,0.2618736383442266,0.29455337690631805,0.3128540305010893
32,0,40,0.26244343891402716,0.29562594268476616,0.31131221719457003
42,0,25,0.2627450980392157,0.29705882352941176,0.3142156862745098
44,0,27,0.27086834733893556,0.30224089635854334,0.3207282913165265
40,0,25,0.26666666666666666,0.30021786492374725,0.3172113289760348
39,0,24,0.2661764705882353,0.30098039215686273,0.3176470588235294
13,3,24,0.22788671023965146,0.20130718954248367,0.18474945533769063
48,21,26,0.5835294117647059,0.5079738562091504,0.4564705882352943
39,0,23,0.27394957983193274,0.3064425770308124,0.3238095238095238
37,0,20,0.27058823529411763,0.3032679738562091,0.3202614379084967
23,29,18,0.5986928104575162,0.52,0.48366013071895425
36,0,19,0.268235294117647,0.3003921568627451,0.3184313725490196
33,0,17,0.27058823529411763,0.30364145658263303,0.3215686274509804
50,21,25,0.5433551198257079,0.470007262164125,0.40363108206245485
33,0,16,0.26745098039215687,0.3003921568627451,0.316078431372549
53,28,18,0.5323249299719888,0.47260504201680664,0.44492997198879564
32,0,16,0.26431372549019605,0.2972549019607843,0.31529411764705884
31,0,14,0.2710239651416122,0.3054466230936819,0.3246187363834423
38,10,26,0.4587466359092653,0.39484813533256424,0.30572856593617836
28,0,13,0.2683473389355742,0.30476190476190484,0.3215686274509804
39,13,25,0.44771241830065367,0.39281045751634,0.3309368191721132
29,0,13,0.26442577030812325,0.3002801120448179,0.31876750700280115
30,0,14,0.26509803921568625,0.2996078431372549,0.3192156862745098
31,0,15,0.2698039215686274,0.3035294117647059,0.3223529411764706
30,0,15,0.27058823529411763,0.306318082788671,0.3237472766884532
13,9,26,0.036764705882352935,0.0446078431372549,0.047058823529411764
28,0,14,0.2661764705882353,0.30098039215686273,0.32009803921568625
27,0,13,0.2661764705882353,0.30147058823529416,0.31960784313725493
26,0,13,0.2711484593837535,0.3030812324929972,0.3215686274509804
26,0,14,0.2751633986928104,0.3065359477124183,0.3235294117647059
28,0,15,0.26601307189542484,0.30130718954248364,0.3183006535947712
29,0,16,0.26666666666666666,0.3015250544662309,0.3206971677559912
30,5,2,0.6134453781512607,0.5266106442577031,0.4672268907563026
24,5,34,0.08644501278772378,0.25865302642796245,0.2901960784313725
30,0,16,0.26330532212885155,0.29859943977591036,0.3182072829131653
32,0,17,0.2656862745098039,0.2980392156862745,0.31666666666666665
34,0,18,0.2725490196078431,0.30522875816993467,0.32287581699346407
35,0,19,0.2683473389355742,0.3002801120448179,0.31652661064425774
15,8,29,0.251436388508892,0.35896032831737373,0.33278613771089843
36,0,20,0.2647058823529412,0.2973856209150327,0.3150326797385621
36,0,21,0.27294117647058824,0.3050980392156863,0.3223529411764706
38,0,24,0.26509803921568625,0.2988235294117647,0.316078431372549
55,1,26,0.4852941176470588,0.41470588235294115,0.3627450980392157
52,8,26,0.33574660633484166,0.2954751131221719,0.2660633484162896
39,0,25,0.2656862745098039,0.30098039215686273,0.3176470588235294
38,0,25,0.2656862745098039,0.2995098039215686,0.3176470588235294
37,0,42,0.25245098039215685,0.28676470588235287,0.30098039215686273
36,0,22,0.27124183006535946,0.3019607843137255,0.3183006535947712
27,30,11,0.5301960784313725,0.49333333333333335,0.47372549019607846
34,0,19,0.26509803921568625,0.2972549019607843,0.3137254901960784
39,8,28,0.1671023965141608,0.28358090711031897,0.2806298276886512
32,0,18,0.2638655462184874,0.2969187675070028,0.31540616246498604
17,1,38,0.4661064425770308,0.4056022408963585,0.35070028011204485
22,9,30,0.23372549019607827,0.46796568627451024,0.48436274509803956
52,4,33,0.04827197065876699,0.06308365072647754,0.06847228099873033
32,0,19,0.26588235294117646,0.2988235294117647,0.3176470588235294
33,0,20,0.27156862745098037,0.30294117647058827,0.32254901960784316
33,0,21,0.2722689075630252,0.30364145658263303,0.32212885154061627
18,10,29,0.4236802413272998,0.35377073906485673,0.30806938159879343
32,0,20,0.26745098039215687,0.3003921568627451,0.31999999999999995
33,30,21,0.6325791855203617,0.5547511312217194,0.5182503770739064
49,0,42,0.2603921568627451,0.2901960784313725,0.3035294117647059
31,0,20,0.26143790849673204,0.2954248366013072,0.31176470588235294
28,0,16,0.26715686274509803,0.3,0.31960784313725493
33,32,21,0.6217194570135745,0.5429864253393665,0.5070889894419306
54,14,22,0.5933634992458521,0.5010558069381599,0.43046757164404226
29,0,17,0.26106442577030814,0.2946778711484594,0.3114845938375351
28,0,17,0.2635294117647059,0.29568627450980395,0.3137254901960784
27,0,15,0.2673202614379085,0.29934640522875816,0.31699346405228757
25,0,15,0.26862745098039215,0.30049019607843136,0.31813725490196076
25,0,16,0.27124183006535946,0.3032679738562092,0.3215686274509804
27,0,17,0.27058823529411763,0.30261437908496736,0.3196078431372549
28,0,19,0.2619607843137255,0.29568627450980395,0.31450980392156863
30,0,20,0.2638655462184874,0.2957983193277311,0.3148459383753502
56,3,40,0.10489579479590552,0.18569490689357457,0.2168454803304966
34,0,23,0.2676470588235294,0.2995098039215686,0.3176470588235294
36,0,24,0.27499999999999997,0.30637254901960786,0.3240196078431372
43,0,28,0.2661064425770308,0.29971988795518206,0.31540616246498604
35,12,26,0.270505675954592,0.2363673890608872,0.1752321981424147
42,0,28,0.2647058823529412,0.29901960784313725,0.31470588235294117
38,0,26,0.2672268907563025,0.30084033613445377,0.31764705882352945
34,0,25,0.26554621848739496,0.2977591036414565,0.3159663865546217
28,9,29,0.37333333333333335,0.3508496732026144,0.3056209150326798
36,0,25,0.2691622103386809,0.303030303030303,0.32014260249554366
36,0,26,0.26395173453996984,0.2959276018099547,0.31402714932126685
23,30,12,0.5288515406162465,0.4913165266106443,0.4717086834733894
32,0,24,0.26710239651416123,0.2989106753812636,0.3180827886710239
28,3,2,0.5697478991596637,0.48067226890756304,0.4224089635854341
31,0,23,0.2645276292335116,0.29696969696969694,0.3140819964349376
49,0,43,0.1704825642831979,0.17125748502993973,0.16742984618997261
40,33,21,0.5758169934640524,0.5078431372549019,0.4830065359477124
31,0,24,0.26753812636165575,0.298474945533769,0.3172113289760348
30,0,22,0.26143790849673204,0.2934640522875817,0.3111111111111111
28,0,20,0.26666666666666666,0.30196078431372547,0.3202614379084967
27,0,20,0.269281045751634,0.30457516339869284,0.3202614379084967
28,0,22,0.26509803921568625,0.3003921568627451,0.316078431372549
29,0,24,0.26715686274509803,0.2995098039215687,0.3186274509803922
37,0,27,0.26710239651416123,0.29934640522875816,0.31590413943355117
36,0,28,0.26554621848739496,0.2969187675070028,0.31316526610644263
29,25,24,0.5305929600755966,0.44549964564138855,0.3926293408929832
57,0,23,0.25,0.28627450980392155,0.30294117647058827
30,0,25,0.26348039215686275,0.2973039215686274,0.313970588235294
27,0,29,0.271078431372549,0.30343137254901964,0.32254901960784316
29,0,25,0.2700653594771242,0.3019607843137254,0.32130718954248366
42,1,41,0.44817927170868355,0.3927170868347339,0.3366946778711485
28,0,23,0.2710239651416122,0.30413943355119827,0.32244008714596956
27,0,23,0.2736383442265795,0.306318082788671,0.3241830065359477
22,27,24,0.6252100840336136,0.542296918767507,0.5025210084033613
31,12,26,0.49092867916397326,0.452617970265029,0.3588019823313938
26,0,20,0.27137254901960783,0.30274509803921573,0.3192156862745098
25,0,17,0.2751633986928104,0.3084967320261438,0.32745098039215687
22,0,16,0.27009803921568626,0.3014705882352941,0.3186274509803922
44,17,2,0.6007843137254902,0.5184313725490196,0.46352941176470586
21,0,16,0.27385620915032677,0.30522875816993467,0.32156862745098036
21,0,17,0.27731092436974786,0.30812324929971996,0.32492997198879553
20,0,16,0.2768627450980392,0.30823529411764705,0.32705882352941174
20,0,15,0.2774509803921568,0.30833333333333335,0.32598039215686275
19,0,9,0.2753812636165577,0.306318082788671,0.32418300653594767
20,0,17,0.27999999999999997,0.31058823529411766,0.32705882352941174
55,21,13,0.6088235294117648,0.5715686274509804,0.5450980392156862
22,0,18,0.2681372549019608,0.30196078431372547,0.31911764705882356
25,0,18,0.2790849673202614,0.31176470588235294,0.3300653594771242
25,0,19,0.2745098039215686,0.3065359477124183,0.32287581699346407
25,0,20,0.2683473389355742,0.3014005602240896,0.31764705882352945
26,0,21,0.276078431372549,0.3074509803921569,0.3247058823529412
10,1,34,0.4572549019607843,0.3984313725490196,0.3396078431372549
25,0,21,0.27170868347338933,0.30588235294117655,0.323249299719888
24,0,19,0.28470588235294114,0.31529411764705884,0.3325490196078431
24,0,20,0.2764705882352941,0.307843137254902,0.32401960784313727
23,0,19,0.2799019607843137,0.3107843137254902,0.3269607843137255
22,0,20,0.27385620915032677,0.30522875816993467,0.3209150326797386
24,0,22,0.2772549019607843,0.30941176470588233,0.3266666666666667
25,0,22,0.27058823529411763,0.30457516339869284,0.3215686274509804
49,13,2,0.5911764705882353,0.5063725490196078,0.4544117647058824
26,0,23,0.2772549019607843,0.3098039215686274,0.3286274509803922
28,0,24,0.2714596949891067,0.30501089324618735,0.32244008714596956
46,26,26,0.5845538215286119,0.5106842737094843,0.4700280112044815
37,0,34,0.2644880174291939,0.2993464052287582,0.3159041394335513
28,0,25,0.27198879551820726,0.3042016806722688,0.32324929971988803
38,8,31,0.13622291021671826,0.26418988648090813,0.2792569659442724
30,0,26,0.2619607843137255,0.2945098039215686,0.3125490196078431
31,0,26,0.26492374727668844,0.2989106753812636,0.3150326797385621
32,0,26,0.2690196078431372,0.30156862745098034,0.3207843137254902
30,0,27,0.2647058823529412,0.296078431372549,0.31421568627450985
32,0,28,0.257843137254902,0.29117647058823526,0.30686274509803924
49,0,34,0.2588235294117647,0.2928104575163399,0.30915032679738563
31,0,28,0.26056644880174296,0.29368191721132897,0.30980392156862746
25,28,24,0.5635854341736694,0.4887955182072829,0.45406162464986
52,3,24,0.47450980392156866,0.3897058823529411,0.321078431372549
34,16,24,0.5098937284837598,0.43044454422990575,0.36443646160754367
33,0,28,0.2568627450980392,0.2906862745098039,0.30686274509803924
8,1,31,0.4901960784313726,0.4274509803921568,0.3703703703703704
29,26,24,0.5914596949891071,0.5074074074074074,0.4589542483660125
36,8,25,0.22701525054466234,0.19651416122004361,0.1640522875816993
29,14,24,0.44298245614035064,0.36351909184726483,0.30314757481940124
32,0,29,0.25770308123249297,0.2901960784313725,0.3064425770308123
30,0,28,0.2656862745098039,0.2965686274509804,0.3147058823529412
29,0,27,0.2607843137254902,0.29362745098039217,0.31176470588235294
13,1,41,0.4705882352941177,0.4098039215686274,0.35032679738562095
46,0,7,0.2622549019607843,0.29411764705882354,0.30833333333333335
34,12,26,0.2599408478475193,0.21862197392923663,0.1726804688355786
29,0,26,0.2619607843137255,0.2952941176470588,0.3141176470588235
28,0,26,0.2690196078431372,0.30313725490196075,0.3235294117647059
41,6,24,0.10588235294117647,0.09467787114845938,0.08795518207282914
23,4,24,0.18382352941176472,0.16225490196078432,0.1387254901960784
25,0,23,0.27352941176470585,0.30833333333333335,0.32450980392156864
24,0,23,0.2752228163992869,0.3076648841354723,0.32477718360071306
58,23,18,0.5926470588235293,0.5004901960784314,0.44607843137254916
21,0,19,0.2771241830065359,0.3104575163398693,0.3261437908496732
22,0,21,0.27892156862745093,0.3093137254901961,0.325
23,0,23,0.2790849673202614,0.3117647058823529,0.32810457516339875
41,9,30,0.2345098039215687,0.2892997198879553,0.27305322128851545
22,0,22,0.2857142857142857,0.31540616246498604,0.3338935574229692
38,9,2,0.5965686274509804,0.5044117647058823,0.4490196078431373
25,0,25,0.2890426758938869,0.3222606689734717,0.3397923875432525
22,4,2,0.5859943977591037,0.4997198879551821,0.44481792717086843
26,0,26,0.28671023965141607,0.31982570806100213,0.33943355119825713
25,0,26,0.2906318082788671,0.3220043572984749,0.34204793028322444
17,1,43,0.4222222222222222,0.3568627450980392,0.3006535947712418
26,0,28,0.2764705882352941,0.307843137254902,0.32679738562091504
25,0,27,0.29705882352941176,0.32941176470588235,0.34705882352941175
28,0,29,0.25980392156862747,0.29215686274509806,0.3122549019607843
29,0,29,0.26330532212885155,0.2946778711484594,0.3126050420168068
43,30,9,0.5424836601307189,0.5058823529411764,0.4849673202614379
32,0,31,0.2572549019607843,0.29058823529411765,0.30745098039215685
31,0,31,0.253781512605042,0.28683473389355735,0.30196078431372547
33,0,31,0.2615686274509804,0.2956862745098039,0.3117647058823529
34,0,31,0.26666666666666666,0.29859943977591036,0.3159663865546219
34,0,30,0.2594771241830065,0.29411764705882354,0.3084967320261438
49,0,21,0.257843137254902,0.29215686274509806,0.307843137254902
37,0,32,0.2672268907563025,0.30084033613445377,0.31764705882352945
38,0,32,0.26702317290552585,0.30267379679144385,0.31978609625668447
39,0,30,0.26666666666666666,0.3011764705882353,0.3184313725490196
40,0,29,0.26862745098039215,0.3032679738562092,0.31895424836601305
28,1,35,0.3666666666666667,0.3252450980392156,0.27524509803921565
41,0,29,0.2679738562091503,0.3013071895424837,0.3189542483660131
41,0,30,0.26666666666666666,0.3013071895424837,0.3183006535947712
43,0,29,0.261624649859944,0.29635854341736695,0.31316526610644263
25,21,24,0.5348895113600998,0.44114534702769964,0.3686896981014627
44,0,29,0.25658263305322127,0.2907563025210084,0.30812324929971996
25,30,13,0.5424836601307189,0.5067538126361656,0.4862745098039215
44,0,28,0.263235294117647,0.29754901960784313,0.3137254901960784
54,21,17,0.5568627450980391,0.4933634992458522,0.44947209653092013
41,0,28,0.25960784313725493,0.29490196078431374,0.31058823529411766
25,17,24,0.6074074074074073,0.5172113289760348,0.4675381263616558
40,0,27,0.2642156862745098,0.29705882352941176,0.31470588235294117
57,25,16,0.5254901960784314,0.43921568627450996,0.389950980392157
37,1,2,0.47903469079939676,0.3948717948717949,0.3336349924585219
53,4,24,0.46143790849673205,0.38431372549019605,0.31241830065359477
39,0,28,0.261624649859944,0.2969187675070028,0.31316526610644263
55,28,15,0.49740670461733083,0.4273244781783683,0.3850727387729288
28,28,19,0.48274509803921567,0.455686274509804,0.441372549019608
37,0,29,0.2683473389355742,0.3002801120448179,0.31652661064425774
38,0,30,0.26519607843137255,0.2980392156862745,0.3142156862745098
42,33,21,0.5882352941176471,0.5176470588235293,0.48921568627450984
35,0,28,0.26509803921568625,0.2964705882352941,0.3141176470588235
55,21,22,0.5978609625668448,0.5661319073083777,0.5422459893048127
35,0,29,0.2661064425770308,0.3002801120448179,0.31652661064425774
28,14,28,0.5145969498910675,0.4535947712418301,0.41437908496732023
34,0,29,0.261624649859944,0.2957983193277311,0.3120448179271709
10,7,24,0.19999999999999998,0.16666666666666663,0.13970588235294118
16,30,18,0.5261663286004057,0.4860040567951319,0.46599053414469244
54,0,23,0.2607843137254902,0.2954248366013072,0.3084967320261438
34,0,28,0.2607843137254902,0.2946078431372549,0.31176470588235294
33,0,26,0.26862745098039215,0.3019607843137254,0.31932773109243706
42,0,31,0.26323529411764707,0.2980392156862745,0.3156862745098039
53,0,3,0.277361853832442,0.3115864527629233,0.32549019607843144
41,0,31,0.2607843137254902,0.29558823529411765,0.3127450980392157
36,0,33,0.2647058823529412,0.29607843137254897,0.31294117647058817
33,0,33,0.2552941176470588,0.2847058823529411,0.30117647058823527
52,0,42,0.2633053221288515,0.2907563025210084,0.3042016806722689
31,0,32,0.2504201680672269,0.28459383753501394,0.30084033613445377
30,0,31,0.25735294117647056,0.288235294117647,0.3058823529411765
30,0,30,0.2612745098039216,0.29411764705882354,0.31323529411764706
26,8,25,0.14313725490196078,0.12352941176470589,0.10784313725490197
30,0,32,0.25969498910675376,0.28976034858387795,0.30806100217864923
31,0,33,0.2534313725490196,0.28529411764705875,0.3019607843137255
46,3,28,0.08019427954668093,0.12966360856269094,0.13200215866162962
32,0,34,0.2648841354723708,0.29661319073083775,0.3133689839572192
38,28,21,0.48246716162193043,0.44728726442033073,0.42920236055587235
33,0,34,0.26246498599439777,0.29327731092436965,0.3092436974789915
33,0,35,0.2611303344867359,0.2941176470588235,0.30934256055363313
9,1,36,0.46773618538324424,0.4028520499108735,0.340463458110517
31,0,34,0.2619047619047619,0.2918767507002801,0.3100840336134453
28,0,32,0.26431372549019605,0.29647058823529415,0.31529411764705884
29,0,34,0.2598930481283422,0.29126559714795003,0.309090909090909
31,0,36,0.257516339869281,0.2885620915032679,0.3052287581699346
23,28,24,0.5651960784313724,0.48995098039215684,0.4517156862745098
22,0,17,0.2745098039215686,0.306318082788671,0.32331154684095864
30,0,18,0.265359477124183,0.29934640522875816,0.31721132897603493
53,0,10,0.25931372549019605,0.29117647058823526,0.30980392156862735
45,0,8,0.26715686274509803,0.2995098039215686,0.31470588235294117
44,0,8,0.2679738562091503,0.2997821350762527,0.31633986928104574
8,1,43,0.45882352941176474,0.39215686274509803,0.3262745098039216
22,0,5,0.27385620915032677,0.30718954248366015,0.32679738562091504
43,0,8,0.2730392156862745,0.3024509803921569,0.3181372549019608
43,0,9,0.265359477124183,0.296078431372549,0.3130718954248366
41,0,7,0.26633986928104575,0.2977124183006536,0.31405228758169934
40,0,8,0.27320261437908494,0.30457516339869284,0.3215686274509804
41,0,6,0.2647058823529412,0.29477124183006537,0.3111111111111111
56,24,25,0.3320212295444497,0.28574377119268785,0.2272003538257409
38,0,4,0.26862745098039215,0.3007843137254902,0.31647058823529417
31,32,21,0.6156862745098037,0.539366515837104,0.5031674208144796
37,0,6,0.2549019607843137,0.28470588235294114,0.3027450980392157
50,19,2,0.5955182072829132,0.5131652661064425,0.46162464985994406
37,0,5,0.26405228758169935,0.2934640522875817,0.3111111111111111
26,28,22,0.5436720142602495,0.4705882352941177,0.4313725490196079
37,0,3,0.2854030501089324,0.32026143790849676,0.3359477124183007
6,1,32,0.48179271708683474,0.41960784313725485,0.36022408963585434
35,0,3,0.2869281045751633,0.31960784313725493,0.3372549019607844
35,0,2,0.3676937441643324,0.33632119514472447,0.307376283846872
36,0,2,0.36319758672699864,0.33453996983408746,0.30723981900452474
35,0,4,0.27320261437908494,0.30413943355119827,0.3241830065359477
30,0,2,0.36431372549019614,0.33529411764705874,0.30627450980392157
29,0,2,0.36454248366013076,0.3313725490196077,0.2996732026143791
47,0,27,0.2661764705882353,0.2985294117647059,0.3156862745098039
25,0,2,0.3603318250377075,0.32352941176470584,0.2930618401206636
38,14,24,0.5466666666666666,0.4601307189542485,0.3984313725490196
53,10,24,0.5156862745098039,0.4251633986928105,0.3607843137254902
58,25,11,0.5979360165118678,0.5052631578947369,0.4592363261093912
23,0,2,0.36613190730837797,0.3297682709447414,0.30071301247771837
20,0,2,0.3701960784313726,0.33594771241830057,0.3035294117647058
19,0,2,0.35935828877005355,0.3292335115864527,0.2989304812834224
28,0,3,0.26601307189542484,0.30457516339869284,0.322875816993464
58,26,8,0.561792717086835,0.47887955182072833,0.43316526610644274
30,0,3,0.2759358288770053,0.31443850267379675,0.33262032085561505
31,0,4,0.2710239651416122,0.306318082788671,0.3263616557734205
44,30,12,0.5477124183006536,0.5058823529411764,0.48627450980392156
33,0,4,0.2753812636165577,0.30980392156862746,0.3281045751633987
22,11,41,0.4781561747506023,0.3866529067767455,0.235844513243894
33,0,3,0.27507002801120445,0.31036414565826337,0.3277310924369748
35,0,5,0.27015250544662306,0.30021786492374725,0.3180827886710239
38,0,7,0.26230936819172107,0.29411764705882354,0.3093681917211329
36,0,6,0.25980392156862747,0.2911764705882353,0.30980392156862746
33,0,6,0.2564705882352941,0.28862745098039216,0.3074509803921569
54,12,12,0.5823529411764706,0.4901960784313726,0.4259803921568627
34,0,7,0.2689075630252101,0.3002801120448179,0.3182072829131653
57,26,6,0.5405228758169933,0.46117647058823535,0.42156862745098056
35,0,8,0.26862745098039215,0.30065359477124187,0.31895424836601305
31,0,6,0.26519607843137255,0.2995098039215686,0.3166666666666667
57,0,20,0.2529411764705882,0.28823529411764703,0.303921568627451
30,0,7,0.26323529411764707,0.29705882352941176,0.3161764705882353
48,0,25,0.26588235294117646,0.2988235294117647,0.3156862745098039
28,0,5,0.25735294117647056,0.29117647058823526,0.30833333333333335
27,0,5,0.24985994397759104,0.2851540616246498,0.3030812324929972
26,0,4,0.256078431372549,0.292156862745098,0.3098039215686274
25,0,4,0.27130124777183595,0.30481283422459887,0.3229946524064171
24,0,3,0.26745098039215687,0.30235294117647055,0.3207843137254902
24,0,4,0.2745098039215686,0.30718954248366015,0.3254901960784314
48,10,26,0.6232492997198877,0.5557422969187674,0.4988795518207283
26,0,5,0.2522875816993464,0.2862745098039215,0.3032679738562092
24,0,5,0.27394957983193274,0.3053221288515407,0.3226890756302521
27,0,7,0.26050420168067223,0.2957983193277311,0.31316526610644263
28,0,7,0.2627450980392157,0.2972549019607843,0.31450980392156863
11,1,37,0.47352941176470587,0.4117647058823529,0.34901960784313724
32,8,2,0.6209150326797386,0.5313725490196078,0.4686274509803922
58,1,38,0.4644257703081233,0.4,0.33837535014005604
32,0,8,0.26330532212885155,0.29859943977591036,0.3159663865546219
47,31,17,0.5861111111111109,0.515032679738562,0.46993464052287587
31,0,8,0.26601307189542484,0.29869281045751633,0.31699346405228757
30,0,8,0.2611764705882353,0.29333333333333333,0.3137254901960784
29,0,8,0.25882352941176473,0.29411764705882354,0.31176470588235294
53,1,26,0.44836601307189544,0.38627450980392153,0.33496732026143783
29,0,9,0.265359477124183,0.2980392156862745,0.31590413943355117
30,17,24,0.5875816993464051,0.4970588235294118,0.44836601307189555
26,0,7,0.25994397759103643,0.2957983193277311,0.3120448179271709
32,3,36,0.08275584206285237,0.08965887724952974,0.09065269943593857
25,0,6,0.27009803921568626,0.3029411764705882,0.3220588235294118
24,0,6,0.26862745098039215,0.30196078431372547,0.3196078431372549
26,0,8,0.26715686274509803,0.3009803921568628,0.31960784313725493
36,27,24,0.6274509803921566,0.5511312217194569,0.5107088989441931
24,0,8,0.27156862745098037,0.3009803921568628,0.3205882352941177
21,0,4,0.27201426024955433,0.30516934046345806,0.3222816399286988
17,0,3,0.2806100217864923,0.3159041394335513,0.3324618736383443
18,0,4,0.2662309368191721,0.30021786492374725,0.3145969498910675
21,0,5,0.2745098039215686,0.30476190476190473,0.3226890756302521
21,6,34,0.047058823529411764,0.30364145658263314,0.3361344537815126
54,11,10,0.5836601307189543,0.4888888888888889,0.4294117647058824
22,0,7,0.27058823529411763,0.3019607843137255,0.3186274509803922
23,0,9,0.2745098039215686,0.30588235294117655,0.32492997198879553
22,0,8,0.27507002801120445,0.3075630252100841,0.3243697478991597
21,0,6,0.2722689075630252,0.30476190476190473,0.3243697478991597
19,0,5,0.2745098039215686,0.3058823529411765,0.3235294117647059
8,1,40,0.4784313725490196,0.4104575163398692,0.34771241830065364
19,0,6,0.2740196078431372,0.3053921568627451,0.3215686274509804
20,0,7,0.2745098039215686,0.3032679738562091,0.3202614379084967
21,0,7,0.2691176470588235,0.3,0.3176470588235294
22,0,9,0.27696078431372545,0.3093137254901961,0.3269607843137255
23,0,10,0.277995642701525,0.3089324618736383,0.3276688453159042
22,0,10,0.27731092436974786,0.30812324929971996,0.32492997198879553
27,3,34,0.0668174962292609,0.18763197586726996,0.21975867269984925
18,0,6,0.27549019607843134,0.30637254901960786,0.32450980392156864
17,0,2,0.34602076124567477,0.3234140715109573,0.2996539792387543
16,0,2,0.3585677749360615,0.3266837169650468,0.29769820971867006
6,1,35,0.45418894830659545,0.4007130124777183,0.34474153297682714
15,0,2,0.35479876160990714,0.32301341589267285,0.2932920536635707
16,0,3,0.28739495798319326,0.32212885154061627,0.33949579831932775
17,0,4,0.27088989441930617,0.30407239819004517,0.3194570135746605
16,0,6,0.26323529411764707,0.296078431372549,0.3112745098039216
17,0,6,0.2694677871148459,0.30084033613445377,0.31652661064425774
17,0,8,0.26666666666666666,0.29747899159663865,0.3126050420168068
46,0,5,0.2815686274509804,0.31529411764705884,0.3317647058823529
33,1,24,0.17647058823529413,0.1581699346405229,0.13660130718954247
44,0,31,0.2661064425770308,0.30084033613445377,0.31764705882352945
17,29,18,0.5542761785565296,0.47984981226533185,0.4405506883604503
20,0,8,0.27843137254901956,0.3064425770308123,0.323249299719888
20,0,9,0.2790849673202614,0.30915032679738563,0.32679738562091504
53,0,15,0.26971677559912854,0.3028322440087146,0.3180827886710239
21,0,9,0.27843137254901956,0.3064425770308124,0.3254901960784314
21,0,10,0.2745098039215686,0.30476190476190484,0.3215686274509804
41,23,24,0.6030523549626031,0.5220335556903172,0.4788760865170809
19,9,29,0.3161387631975867,0.3324283559577677,0.3146304675716441
56,26,21,0.5417366946778718,0.47466986794717836,0.44537815126050384
17,0,10,0.276750700280112,0.307563025210084,0.3254901960784314
48,30,9,0.4347338935574229,0.39215686274509803,0.373109243697479
18,0,10,0.268235294117647,0.3011764705882353,0.3192156862745098
18,0,11,0.27581699346405225,0.307843137254902,0.3261437908496732
19,0,10,0.269281045751634,0.3006535947712418,0.31895424836601305
21,0,11,0.27507002801120445,0.30476190476190484,0.32100840336134456
22,0,11,0.2768627450980392,0.30823529411764705,0.3254901960784313
58,25,16,0.5467571644042232,0.4595776772247362,0.40920060331825064
23,0,11,0.27803921568627443,0.3090196078431372,0.327843137254902
24,0,9,0.2745098039215686,0.3058823529411765,0.3254901960784314
40,7,27,0.09019607843137255,0.23137254901960785,0.24313725490196078
25,0,10,0.272156862745098,0.30470588235294116,0.3243137254901961
25,0,9,0.2740196078431372,0.30686274509803924,0.32598039215686275
26,0,9,0.2745098039215686,0.30980392156862746,0.3281045751633987
25,1,35,0.37450980392156863,0.33333333333333337,0.28137254901960784
57,0,40,0.2605042016806723,0.2873949579831932,0.3002801120448179
27,0,10,0.2638655462184874,0.2991596638655462,0.319327731092437
55,0,28,0.2549019607843137,0.28823529411764703,0.3058823529411765
25,0,11,0.26862745098039215,0.30147058823529416,0.3200980392156863
30,8,29,0.19228905045164105,0.2806785635602554,0.27455386649041624
24,0,11,0.27930283224400865,0.3084967320261438,0.32941176470588235
22,0,12,0.2819607843137254,0.3125490196078431,0.3290196078431373
30,8,28,0.2102207812258763,0.27052647830785875,0.25761926817971326
21,0,12,0.2836601307189542,0.3128540305010893,0.330718954248366
43,15,24,0.6057040998217468,0.5155080213903743,0.4598930481283423
19,0,11,0.27352941176470585,0.3053921568627451,0.325
37,24,24,0.607096171802054,0.5254901960784314,0.4795518207282913
49,30,8,0.5070028011204482,0.4543417366946779,0.4291316526610644
37,0,8,0.27058823529411763,0.3,0.3176470588235294
29,4,2,0.5887254901960784,0.4985294117647059,0.4411764705882354
55,21,18,0.6030501089324618,0.568627450980392,0.5437908496732026
28,4,2,0.5888888888888889,0.5,0.44117647058823534
28,5,2,0.6100840336134455,0.5210084033613446,0.4610644257703082
7,1,41,0.4718954248366013,0.40479302832244,0.3403050108932463
30,6,2,0.607843137254902,0.5176470588235295,0.4549019607843137
30,7,2,0.6122549019607844,0.5294117647058824,0.47156862745098044
30,8,2,0.6263305322128853,0.5322128851540616,0.469467787114846
29,9,2,0.6171568627450981,0.5230392156862745,0.45882352941176474
30,9,2,0.615126050420168,0.5221288515406163,0.45770308123249304
31,9,2,0.6196078431372549,0.5313725490196078,0.4671568627450981
31,10,2,0.6137254901960785,0.5264705882352941,0.46323529411764713
32,11,2,0.6203921568627451,0.5341176470588235,0.471764705882353
32,10,2,0.6124183006535948,0.5248366013071896,0.4633986928104575
32,9,2,0.6201680672268909,0.5305322128851541,0.4672268907563026
32,7,2,0.6050420168067226,0.5170868347338935,0.4549019607843138
33,10,2,0.6142156862745098,0.5264705882352941,0.4671568627450981
42,27,24,0.5955991285403052,0.5145533769063183,0.4772984749455332
33,11,2,0.6156862745098041,0.5277310924369748,0.4666666666666667
17,14,29,0.49291101055806935,0.4126696832579186,0.36048265460030166
33,12,2,0.612636165577342,0.5233115468409586,0.4618736383442266
38,33,18,0.4901960784313726,0.44862745098039214,0.43843137254901965
44,9,2,0.6052287581699346,0.518954248366013,0.46470588235294125
54,0,22,0.2607843137254902,0.2954248366013072,0.30915032679738563
34,10,2,0.6151260504201682,0.5260504201680672,0.4649859943977592
33,7,2,0.6052287581699346,0.5183006535947713,0.45816993464052297
55,4,40,0.11148459383753503,0.1647058823529412,0.19103641456582637
32,6,2,0.6056644880174291,0.5198257080610021,0.4601307189542484
31,1,43,0.38284313725490193,0.33725490196078434,0.29362745098039217
44,26,26,0.601023017902813,0.5248081841432224,0.4806479113384484
31,5,2,0.6129411764705882,0.5274509803921569,0.46862745098039216
30,4,2,0.5908496732026144,0.5026143790849673,0.4450980392156863
28,2,2,0.544313725490196,0.4545098039215687,0.39450980392156865
50,26,26,0.5830303030303036,0.5041711229946528,0.4658823529411759
27,2,2,0.5359477124183006,0.4474945533769063,0.38649237472766884
27,3,2,0.5642156862745097,0.47500000000000003,0.4166666666666666
26,3,2,0.5572984749455336,0.46971677559912856,0.4148148148148148
25,2,2,0.5221288515406163,0.43305322128851537,0.37254901960784315
25,1,2,0.46352941176470597,0.3745882352941179,0.3119999999999999
24,1,2,0.4615196078431374,0.3737745098039216,0.31004901960784303
28,1,2,0.4597285067873304,0.37315233785822044,0.309049773755656
31,1,40,0.45490196078431383,0.4010695187165776,0.3479500891265598
31,2,2,0.5416666666666666,0.4504901960784313,0.39166666666666666
32,1,2,0.4720142602495544,0.3868092691622103,0.32477718360071306
33,1,2,0.4764705882352942,0.39131652661064426,0.32997198879551826
33,3,2,0.5650980392156861,0.4788235294117647,0.4239215686274509
37,11,2,0.6061624649859944,0.5182072829131653,0.4633053221288516
34,4,2,0.5886274509803922,0.5047058823529411,0.44705882352941184
33,5,2,0.6034313725490196,0.5166666666666666,0.45833333333333337
22,1,2,0.4741532976827095,0.3871657754010695,0.3237076648841355
32,5,2,0.6050420168067226,0.5187675070028012,0.4610644257703082
31,4,2,0.5849673202614379,0.4980392156862745,0.43986928104575157
34,5,2,0.6022408963585434,0.5182072829131653,0.4621848739495799
58,1,8,0.39058823529411774,0.33176470588235296,0.2732026143790849
35,6,2,0.6044817927170868,0.5170868347338935,0.4610644257703082
34,1,2,0.47666666666666674,0.3927450980392158,0.32901960784313716
56,27,13,0.5174093879976234,0.4358882947118242,0.38894830659536567
57,26,24,0.29130770418403545,0.24400185270958727,0.2098811178014509
30,10,2,0.6073529411764705,0.5176470588235293,0.45392156862745103
29,10,2,0.612636165577342,0.5193899782135075,0.45446623093681926
34,28,20,0.47625272331154633,0.4295570079883802,0.4079157588961508
38,32,21,0.6086834733893556,0.5288515406162465,0.4946778711484594
27,5,2,0.5995642701525054,0.5137254901960784,0.4540305010893247
25,4,2,0.5799019607843137,0.4916666666666667,0.43480392156862746
28,7,2,0.6124183006535948,0.5196078431372549,0.4562091503267974
25,5,2,0.6044817927170868,0.5198879551820729,0.46274509803921576
54,0,12,0.2663101604278075,0.2987522281639929,0.31479500891265594
30,5,34,0.09286274509803923,0.2831372549019609,0.31513725490196093
24,5,2,0.6049019607843137,0.5161764705882352,0.4588235294117648
54,1,43,0.07194050033806625,0.08762677484787021,0.1008789722785666
24,4,2,0.5869281045751634,0.4993464052287582,0.4444444444444445
24,3,2,0.5549019607843136,0.46960784313725495,0.41372549019607846
23,3,2,0.5662745098039215,0.4792156862745098,0.4243137254901961
25,8,30,0.12745098039215685,0.2607843137254902,0.28235294117647064
23,2,2,0.5267973856209149,0.43921568627450985,0.38126361655773416
22,2,2,0.5375816993464052,0.4526143790849673,0.39705882352941185
20,2,2,0.5420479302832244,0.4540305010893247,0.3952069716775599
21,1,2,0.4816399286987523,0.39358288770053473,0.3329768270944742
21,4,2,0.5941176470588235,0.5032679738562091,0.4470588235294118
32,0,36,0.25761689291101053,0.28838612368024125,0.30648567119155345
19,1,2,0.48274509803921567,0.396078431372549,0.33372549019607844
19,2,2,0.538562091503268,0.4514161220043574,0.3908496732026143
18,2,2,0.5450980392156862,0.45764705882352946,0.39999999999999997
17,1,2,0.48235294117647065,0.3943355119825708,0.33420479302832246
35,12,2,0.6083333333333333,0.517156862745098,0.45686274509803926
35,8,2,0.5975490196078431,0.5063725490196078,0.44852941176470595
21,28,18,0.5289915966386554,0.47338935574229696,0.4483193277310925
35,5,2,0.5986928104575163,0.5124183006535947,0.45555555555555555
35,4,2,0.5825708061002177,0.4989106753812636,0.440958605664488
35,2,2,0.5418300653594771,0.4516339869281046,0.3908496732026144
35,1,2,0.48092691622103384,0.3967914438502673,0.33440285204991094
36,14,2,0.6030501089324618,0.518954248366013,0.46361655773420485
37,15,2,0.6053921568627451,0.5259803921568628,0.4740196078431373
36,13,2,0.607843137254902,0.5183006535947712,0.46013071895424845
36,10,2,0.6004901960784313,0.5102941176470588,0.45392156862745103
36,11,2,0.6104575163398692,0.5193899782135075,0.4631808278867103
37,12,2,0.6024509803921568,0.5122549019607843,0.4549019607843138
25,9,30,0.2254175744371824,0.31292665214233856,0.3223674655047205
39,15,2,0.5996434937611407,0.5126559714795008,0.4588235294117648
39,14,2,0.5992869875222815,0.5115864527629234,0.45561497326203215
39,13,2,0.5982570806100217,0.5106753812636166,0.4549019607843138
38,7,27,0.11176470588235293,0.2,0.2019607843137255
54,30,4,0.48535178777393306,0.4211072664359864,0.379700115340254
36,7,2,0.5975490196078431,0.5068627450980392,0.45000000000000007
33,7,34,0.36623972169513025,0.49843453510436414,0.5266129032258063
36,5,2,0.5917211328976034,0.5032679738562091,0.4457516339869282
37,4,2,0.5887955182072829,0.5030812324929972,0.44705882352941184
37,6,2,0.6029411764705882,0.5147058823529411,0.45931372549019617
58,1,23,0.4431372549019609,0.38799019607843144,0.33578431372549017
25,30,11,0.5512605042016806,0.5109243697478991,0.49075630252100844
37,7,2,0.6033613445378151,0.5137254901960785,0.45770308123249304
38,7,2,0.6035294117647058,0.5129411764705882,0.45764705882352946
37,10,2,0.5955182072829132,0.503641456582633,0.44705882352941184
38,10,2,0.5910364145658263,0.4997198879551821,0.44481792717086843
55,28,9,0.47722473604826554,0.41402714932126716,0.3867269984917044
38,11,2,0.6053921568627451,0.5181372549019607,0.4632352941176471
39,10,2,0.5878431372549019,0.4988235294117647,0.4443137254901962
39,11,2,0.5980392156862744,0.5088235294117647,0.45326797385620926
39,12,2,0.5965686274509804,0.5068627450980392,0.45049019607843144
40,11,2,0.5945098039215686,0.5066666666666666,0.45058823529411773
39,9,2,0.5927170868347338,0.5033613445378151,0.44761904761904775
38,5,2,0.596078431372549,0.5071895424836601,0.4501089324618737
39,7,2,0.5990196078431372,0.5117647058823529,0.4588235294117648
57,0,41,0.25392156862745097,0.2799019607843137,0.2916666666666667
39,4,2,0.587908496732026,0.5019607843137255,0.4470588235294119
36,1,2,0.4854901960784314,0.40183006535947724,0.33934640522875814
39,3,2,0.5697478991596637,0.48347338935574236,0.4246498599439776
41,15,2,0.6019607843137255,0.5196078431372548,0.46666666666666673
41,16,2,0.5990196078431371,0.5133986928104575,0.4591503267973857
18,21,24,0.6382929642445213,0.5564013840830448,0.5061130334486735
7,1,35,0.45628604382929655,0.39907727797001163,0.3409457900807381
54,12,3,0.5821350762527232,0.4862745098039216,0.428322440087146
6,1,34,0.4607843137254903,0.4036764705882354,0.3453431372549019
9,1,37,0.47843137254901963,0.4112745098039215,0.3485294117647059
8,1,37,0.47088989441930623,0.40392156862745104,0.3420814479638009
42,0,43,0.2566844919786096,0.2873440285204991,0.30730837789661314
46,26,24,0.4997504456327981,0.44142602495543626,0.41076648841354696
10,1,40,0.48104575163398694,0.4143790849673203,0.35294117647058826
20,2,34,0.07069716775599127,0.16601307189542489,0.19684095860566456
11,1,40,0.4764705882352941,0.4107843137254902,0.34901960784313724
56,1,29,0.5076923076923077,0.4365007541478129,0.38491704374057323
10,1,41,0.4901960784313726,0.42091503267973857,0.3542483660130719
26,3,34,0.01749622926093514,0.16199095022624435,0.20150829562594266
9,1,40,0.48333333333333334,0.4156862745098039,0.35441176470588237
49,24,26,0.6359477124183004,0.5601307189542483,0.5117647058823529
57,0,4,0.2627450980392157,0.29355742296918763,0.30364145658263314
53,1,36,0.45764705882352946,0.40549019607843134,0.3576470588235295
8,1,38,0.47294117647058825,0.40509803921568627,0.34392156862745105
8,1,39,0.4705882352941177,0.4063725490196078,0.3485294117647059
7,1,37,0.4749455337690632,0.41002178649237464,0.3459694989106754
7,1,36,0.465359477124183,0.4052287581699346,0.34422657952069724
56,26,19,0.5204066811909949,0.45548293391430655,0.42396514161220056
7,1,39,0.47215686274509805,0.40901960784313723,0.35019607843137257
28,22,24,0.608714596949891,0.5180827886710239,0.47233115468409587
9,1,42,0.46313725490196084,0.3964705882352941,0.33215686274509804
8,1,42,0.4683473389355743,0.40112044817927167,0.3350140056022409
8,1,41,0.48571428571428577,0.41624649859943974,0.34957983193277314
7,1,43,0.4634581105169341,0.39286987522281636,0.3290552584670232
30,30,11,0.5343137254901961,0.4931372549019608,0.47303921568627455
6,1,37,0.48067226890756304,0.4145658263305322,0.3512605042016807
5,1,35,0.461764705882353,0.40424836601307196,0.3467320261437909
5,1,34,0.46274509803921576,0.4058823529411765,0.34789915966386553
9,1,35,0.46778711484593843,0.4056022408963585,0.3439775910364146
51,4,42,0.016538789428815003,0.024893435635123622,0.03000852514919011
10,1,36,0.47352941176470587,0.40784313725490196,0.34411764705882353
11,1,38,0.4725490196078431,0.41470588235294115,0.35490196078431374
12,1,40,0.4725490196078431,0.407843137254902,0.3480392156862745
12,1,41,0.47843137254901963,0.411764705882353,0.3516339869281046
54,7,21,0.5437908496732026,0.4450980392156863,0.373202614379085
12,1,38,0.46274509803921565,0.4052287581699347,0.35032679738562084
7,1,31,0.4894117647058823,0.4243137254901961,0.367843137254902
7,1,30,0.4970588235294118,0.43284313725490187,0.3735294117647059
8,1,32,0.47675070028011207,0.41624649859943974,0.3607843137254902
8,1,33,0.4725490196078431,0.40901960784313723,0.35215686274509805
8,1,29,0.4349376114081997,0.36648841354723705,0.3083778966131907
8,1,30,0.5004901960784314,0.4323529411764707,0.3735294117647059
48,3,29,0.11105882352941177,0.13113725490196074,0.14415686274509798
57,26,11,0.5419416547106651,0.4660927785748444,0.42888570062171216
48,30,7,0.5053921568627451,0.4509803921568628,0.4294117647058823
9,1,32,0.4696832579185521,0.40995475113122176,0.355656108597285
9,1,28,0.3764705882352941,0.31307189542483654,0.25620915032679736
10,1,27,0.3258467023172905,0.2819964349376114,0.2385026737967915
27,1,35,0.3584313725490196,0.3192156862745098,0.27294117647058824
10,1,30,0.4950980392156863,0.42794117647058816,0.37450980392156863
11,1,31,0.4588235294117648,0.4017825311942959,0.34973262032085567
10,1,33,0.4607843137254902,0.403921568627451,0.34705882352941175
53,0,7,0.25784313725490193,0.28872549019607846,0.30343137254901964
47,32,21,0.5956544780074194,0.5180710121886595,0.48563857975622665
12,1,36,0.453921568627451,0.39509803921568626,0.3352941176470588
46,1,40,0.444607843137255,0.38627450980392153,0.3235294117647059
12,1,37,0.47058823529411764,0.4117647058823529,0.35215686274509805
20,0,41,0.2594771241830065,0.2928104575163399,0.307843137254902
13,1,39,0.4666666666666667,0.40980392156862744,0.3509803921568627
19,0,43,0.28986928104575166,0.2892156862745098,0.28300653594771247
