x,y,z,r,g,b
15,17,34,0.3637254901960784,0.29558823529411765,0.22500000000000003
19,10,2,0.6028011204481792,0.5170868347338936,0.46050420168067235
62,0,6,0.2529411764705882,0.28823529411764703,0.30196078431372547
2,1,24,0.40392156862745093,0.3555555555555556,0.2862745098039216
18,34,33,0.6640522875816993,0.5967320261437908,0.5529411764705882
14,29,33,0.6172113289760347,0.5479302832244008,0.5047930283224401
39,0,21,0.2627450980392157,0.2980392156862745,0.3137254901960784
37,8,31,0.16862745098039217,0.17098039215686273,0.15450980392156863
0,1,42,0.4862745098039216,0.41652661064425783,0.34957983193277314
22,37,6,0.5421568627450981,0.4980392156862745,0.4745098039215686
37,4,32,0.1568627450980392,0.14901960784313728,0.12941176470588237
4,32,9,0.6280112044817928,0.5445378151260504,0.4991596638655462
71,26,11,0.6191176470588236,0.5740196078431371,0.5465686274509803
22,16,2,0.6125490196078431,0.5231372549019607,0.4650980392156863
61,15,50,0.24144385026737955,0.19376114081996443,0.13716577540106958
3,3,36,0.45964579380139103,0.45022137887412983,0.40221378874130265
3,1,50,0.47973856209150323,0.4161220043572984,0.35032679738562095
73,28,28,0.5982570806100217,0.5115468409586056,0.4596949891067539
10,0,20,0.2698039215686274,0.30117647058823527,0.3176470588235294
43,8,43,0.3381263616557733,0.5105301379811182,0.5504720406681188
7,30,0,0.6011204481792717,0.5159663865546218,0.465546218487395
63,9,31,0.22549019607843135,0.18823529411764706,0.15490196078431376
17,0,30,0.2790849673202614,0.3104575163398693,0.3287581699346405
6,14,26,0.5498039215686275,0.443921568627451,0.3466666666666667
3,4,36,0.3950980392156865,0.3905228758169937,0.36004901960784336
34,0,17,0.27058823529411763,0.3058823529411765,0.3247058823529412
6,0,5,0.27205882352941174,0.3073529411764706,0.325
0,0,49,0.2971677559912853,0.2915032679738562,0.28627450980392155
15,10,39,0.12430050671954165,0.29389733421458436,0.33192333113020445
3,2,36,0.5223942208462331,0.5026315789473683,0.44664602683178534
6,15,26,0.5572984749455336,0.4618736383442266,0.38779956427015244
51,23,31,0.6188725490196083,0.5296568627450986,0.48120915032679706
32,9,33,0.2549019607843137,0.21715686274509802,0.1686274509803922
46,0,18,0.2676470588235294,0.30196078431372547,0.3196078431372549
67,25,5,0.5878431372549019,0.49411764705882355,0.43529411764705894
28,16,41,0.33464052287581686,0.26934984520123867,0.2191950464396284
3,5,36,0.35087719298245623,0.35985552115583086,0.34035087719298257
3,6,36,0.3615312791783381,0.369561157796452,0.34892623716153137
3,0,25,0.2816993464052287,0.31699346405228757,0.3352941176470588
28,37,16,0.5444444444444444,0.5065359477124183,0.4849673202614379
22,0,37,0.2696078431372549,0.3019607843137255,0.3205882352941176
15,1,49,0.4679738562091503,0.40915032679738567,0.3516339869281046
9,0,30,0.27581699346405225,0.30980392156862746,0.3300653594771242
3,7,36,0.43113245298119246,0.4336134453781512,0.4089635854341737
18,3,2,0.5676470588235294,0.48137254901960785,0.42254901960784313
4,33,18,0.5859649122807017,0.49659442724458197,0.4476780185758514
3,8,36,0.401344537815126,0.3997759103641457,0.3620168067226892
62,1,44,0.43006535947712415,0.38169934640522873,0.3333333333333333
8,14,2,0.6062745098039216,0.5129411764705882,0.4533333333333333
56,26,2,0.6024509803921569,0.5191176470588235,0.4676470588235294
30,10,40,0.2765276984580236,0.4395202741290687,0.4573386636207877
20,1,31,0.1733660130718954,0.15620915032679733,0.13431372549019607
71,0,46,0.2647058823529412,0.29411764705882354,0.3058823529411765
29,10,40,0.1892156862745098,0.35392156862745094,0.3627450980392157
4,32,18,0.615686274509804,0.534640522875817,0.49716775599128543
4,1,10,0.3585434173669468,0.3137254901960785,0.25434173669467786
7,5,31,0.5200980392156862,0.4308823529411765,0.36666666666666664
35,0,15,0.2647058823529412,0.29934640522875816,0.3183006535947712
7,10,35,0.4029411764705883,0.3333333333333333,0.2860294117647058
5,33,31,0.5321783507923716,0.47074939564867035,0.4355895782970722
39,15,33,0.4182072829131653,0.36302521008403366,0.28249299719887966
10,0,46,0.28657616892911003,0.3146304675716439,0.33152337858220216
48,16,32,0.48137254901960785,0.4102941176470589,0.3465686274509803
19,1,53,0.4392156862745099,0.37591036414565826,0.3170868347338936
3,9,36,0.3679354094579009,0.345213379469435,0.2738177623990773
7,0,7,0.2733893557422969,0.30476190476190484,0.3238095238095238
6,11,25,0.546078431372549,0.44509803921568625,0.3607843137254902
45,11,37,0.30070921985815563,0.3193575302461406,0.2896120150187732
3,10,36,0.40020639834881316,0.3578947368421054,0.27760577915376683
10,0,33,0.2694677871148459,0.3030812324929972,0.32492997198879553
46,33,31,0.6256209150326796,0.5458823529411764,0.5032679738562091
27,31,2,0.5972719522591643,0.5087809036658141,0.4579710144927537
27,29,1,0.5756862745098038,0.48601307189542486,0.4413071895424838
6,19,27,0.5418894830659536,0.4459893048128343,0.3707664884135472
29,0,25,0.2768627450980392,0.30823529411764705,0.323921568627451
26,0,18,0.2768627450980392,0.3058823529411765,0.3247058823529412
40,29,2,0.5898039215686275,0.5027450980392156,0.4470588235294118
6,3,23,0.5024509803921569,0.3946078431372549,0.3142156862745098
67,15,32,0.44147355912061736,0.3591800356506237,0.2710041592394535
5,0,13,0.27731092436974786,0.3084033613445377,0.32661064425770314
41,0,9,0.25882352941176473,0.29215686274509806,0.307843137254902
12,0,51,0.28823529411764703,0.3176470588235294,0.32941176470588235
42,35,31,0.5973856209150324,0.5202614379084967,0.48888888888888893
0,1,12,0.4179271708683473,0.36134453781512604,0.3025210084033613
16,0,24,0.2754901960784314,0.30686274509803924,0.3225490196078431
19,10,34,0.2585981519044397,0.2202389001577641,0.14446698219517679
6,11,28,0.5411764705882353,0.4418300653594771,0.3542483660130719
51,1,37,0.31895424836601305,0.31241830065359477,0.2784313725490196
3,11,36,0.46218487394957986,0.39453781512605046,0.3053221288515406
4,1,5,0.3720588235294118,0.32450980392156864,0.2627450980392157
15,17,2,0.6044817927170868,0.5120448179271708,0.4509803921568628
38,1,46,0.41470588235294126,0.3683823529411766,0.3193627450980392
5,29,14,0.6265795206971677,0.5403050108932461,0.4984749455337691
23,15,2,0.6062745098039216,0.5215686274509804,0.4658823529411765
31,31,2,0.6072829131652663,0.5243697478991597,0.46890756302521014
36,3,2,0.5555555555555555,0.46993464052287587,0.40915032679738567
11,0,51,0.28174962292609346,0.30980392156862735,0.3221719457013575
6,27,0,0.5780853517877741,0.4948096885813148,0.44394463667820083
36,21,2,0.6089635854341736,0.5221288515406163,0.4644257703081233
10,1,38,0.5035294117647059,0.4345098039215687,0.3756862745098039
39,0,5,0.2700280112044818,0.30476190476190484,0.32492997198879553
71,0,3,0.2797385620915033,0.30261437908496736,0.307843137254902
38,1,32,0.16251441753171852,0.15063437139561708,0.13114186851211085
18,0,50,0.28627450980392155,0.3176470588235294,0.32941176470588235
3,12,36,0.49019607843137253,0.4093229744728078,0.3081021087680357
3,1,34,0.4369747899159665,0.3669467787114846,0.2980392156862745
60,35,25,0.5207161125319693,0.45626598465473156,0.42387041773231043
47,1,54,0.37058823529411766,0.3254901960784314,0.28823529411764703
4,32,25,0.6141176470588234,0.5325490196078431,0.49764705882352944
73,28,12,0.5990196078431372,0.5034313725490196,0.4509803921568628
52,22,2,0.5993464052287582,0.5183006535947712,0.46470588235294125
23,10,35,0.5031991744066048,0.4487100103199174,0.3725490196078432
15,15,36,0.5393188854489164,0.509391124871001,0.36738906088751283
4,35,17,0.29376114081996435,0.2477718360071301,0.2117647058823529
11,16,2,0.6078431372549019,0.515032679738562,0.45555555555555555
6,15,16,0.5666666666666668,0.473202614379085,0.396078431372549
7,7,2,0.5764705882352941,0.48137254901960785,0.4235294117647058
29,27,2,0.6019607843137255,0.5142156862745098,0.45343137254901966
67,24,28,0.6011204481792717,0.5098039215686274,0.44089635854341747
3,13,36,0.3779246530072698,0.3159726812073139,0.23322317691121366
31,37,5,0.5490196078431373,0.5117647058823529,0.4892156862745098
46,2,33,0.3243697478991597,0.2985994397759103,0.2711484593837535
39,0,32,0.26710239651416123,0.30065359477124187,0.31721132897603493
0,1,39,0.48342245989304816,0.41319073083778973,0.3483065953654189
36,2,2,0.508235294117647,0.4156862745098039,0.3505882352941176
55,28,2,0.6068627450980393,0.5205882352941177,0.46862745098039216
4,30,29,0.6392156862745099,0.5573529411764705,0.5245098039215685
6,2,16,0.4607843137254902,0.3607843137254902,0.2588235294117647
15,5,37,0.06172208013640233,0.12659846547314565,0.14552429667519184
3,14,36,0.31839661072185155,0.3132909673564721,0.2539785997501495
2,0,47,0.28954248366013075,0.3202614379084967,0.3352941176470588
22,0,44,0.27058823529411763,0.303921568627451,0.3215686274509804
10,17,2,0.6091503267973856,0.515032679738562,0.45751633986928103
67,1,16,0.41082352941176487,0.33427450980392154,0.2591372549019608
23,0,53,0.25392156862745097,0.29411764705882354,0.31666666666666665
6,16,24,0.5441176470588236,0.4519607843137255,0.38529411764705884
6,1,49,0.4797385620915033,0.41372549019607846,0.3496732026143791
3,0,48,0.28683473389355735,0.3148459383753502,0.3299719887955182
15,0,16,0.2776470588235294,0.30901960784313726,0.3262745098039216
27,37,11,0.5640522875816992,0.5209150326797386,0.5
30,15,52,0.396078431372549,0.34019607843137256,0.2843137254901961
69,35,13,0.47294117647058825,0.4101960784313725,0.38588235294117645
54,1,38,0.40392156862745093,0.38823529411764707,0.3568627450980393
3,1,23,0.33660130718954245,0.3058823529411765,0.2366013071895425
15,37,2,0.538235294117647,0.5029411764705882,0.47941176470588237
36,0,14,0.2698039215686274,0.3043137254901961,0.32313725490196077
6,17,5,0.5921568627450979,0.49313725490196075,0.4142156862745098
57,37,9,0.4848039215686275,0.4343137254901961,0.41323529411764703
3,14,37,0.2534273213417601,0.24984605412412916,0.21695025117485
58,37,6,0.5103267973856209,0.44209150326797403,0.4130718954248367
63,37,18,0.5343137254901961,0.48921568627450984,0.46862745098039216
54,6,31,0.19607843137254902,0.16862745098039217,0.1411764705882353
4,1,23,0.35784313725490197,0.3137254901960784,0.246078431372549
4,14,36,0.3643691820162409,0.41190334719746496,0.37991681521093285
24,9,31,0.1411764705882353,0.12352941176470589,0.10980392156862745
4,29,24,0.6326797385620914,0.5519607843137254,0.5225490196078431
13,36,33,0.6419607843137255,0.5698039215686272,0.5258823529411764
38,0,44,0.25708061002178645,0.2871459694989106,0.3054466230936819
15,6,40,0.03748558246828141,0.17785467128027688,0.20841983852364487
6,5,12,0.527170868347339,0.419047619047619,0.32605042016806723
4,14,37,0.3432513746239238,0.37018362900715845,0.3544766054569976
6,20,20,0.5843137254901961,0.49019607843137253,0.4294117647058824
23,8,2,0.596078431372549,0.5091503267973856,0.45098039215686275
59,0,26,0.2647058823529412,0.296078431372549,0.31176470588235294
50,37,6,0.538235294117647,0.5009803921568627,0.47843137254901963
6,35,0,0.6091503267973856,0.5300653594771242,0.47647058823529415
4,13,36,0.3716470588235292,0.4238039215686269,0.3779999999999996
65,30,2,0.6032679738562091,0.5169934640522876,0.46470588235294125
19,17,33,0.4683473389355743,0.37703081232492996,0.2890756302521008
54,14,33,0.527843137254902,0.45882352941176474,0.37098039215686274
15,0,35,0.2656862745098039,0.3014705882352941,0.31862745098039214
70,30,32,0.2963423831070887,0.2509049773755654,0.1959276018099545
6,5,24,0.5019607843137255,0.40549019607843134,0.3254901960784314
6,37,0,0.5613725490196078,0.4962745098039215,0.457843137254902
51,5,43,0.03431372549019608,0.22385620915032686,0.261437908496732
6,0,42,0.28235294117647053,0.3128540305010893,0.3302832244008715
10,0,27,0.27955182072829127,0.3137254901960785,0.33165266106442576
5,13,37,0.4327915376676986,0.3978973168214654,0.34521413828689407
7,10,31,0.2984393757503004,0.23577430972388938,0.18087234893957588
66,0,21,0.2627450980392157,0.29411764705882354,0.30980392156862746
47,0,17,0.26823529411764707,0.2996078431372549,0.3184313725490196
50,1,39,0.3632798573975045,0.3329768270944741,0.28912655971479495
6,21,15,0.5945098039215686,0.49411764705882355,0.4250980392156863
67,26,17,0.5670126874279123,0.48512110726643604,0.43391003460207617
58,9,33,0.21849389030974722,0.24512645637965375,0.23621483375959101
19,0,4,0.2815686274509803,0.3168627450980392,0.33372549019607844
52,2,34,0.32254901960784316,0.2995098039215686,0.2762254901960784
31,15,36,0.5368421052631579,0.4976264189886481,0.37915376676986584
71,15,51,0.14013071895424842,0.12000000000000006,0.10235294117647059
11,0,41,0.27352941176470585,0.30620915032679735,0.32385620915032687
5,13,36,0.43391902215431644,0.4419862490450733,0.37767252355487696
4,13,38,0.2835854341736692,0.2742184873949578,0.24356302521008405
72,26,24,0.615686274509804,0.5749019607843137,0.5513725490196079
6,21,18,0.5934640522875817,0.4954248366013072,0.4339869281045752
25,35,23,0.5483660130718954,0.47843137254901963,0.442483660130719
8,0,4,0.27215686274509804,0.30823529411764705,0.3254901960784314
65,22,31,0.6460784313725491,0.5799019607843137,0.5235294117647059
3,13,38,0.29557683538531704,0.2532603739170088,0.19671682626538992
2,1,45,0.4901960784313726,0.4274509803921569,0.3633986928104575
55,3,37,0.27058823529411746,0.24759358288770034,0.21934046345811042
45,0,45,0.2593837535014006,0.292436974789916,0.31036414565826337
9,0,29,0.271078431372549,0.30490196078431375,0.32598039215686275
3,14,38,0.3212418300653591,0.31771241830065317,0.2780392156862741
56,8,2,0.5934640522875817,0.5098039215686274,0.4562091503267974
59,32,2,0.6044817927170868,0.5238095238095238,0.47338935574229696
5,1,47,0.47990196078431374,0.4191176470588235,0.35490196078431374
16,21,2,0.619607843137255,0.5316526610644258,0.4728291316526611
4,33,31,0.5812636165577341,0.5002178649237473,0.47058823529411775
33,16,52,0.4156862745098041,0.3249299719887954,0.2417366946778712
6,23,18,0.5254901960784313,0.4436974789915967,0.3708683473389356
18,9,42,0.31292016806722717,0.46675420168067233,0.485486694677871
2,14,38,0.3067313523347479,0.26816252274105495,0.19227814837275092
72,30,2,0.5996983408748113,0.5185520361990951,0.47028657616892916
6,10,18,0.5568627450980392,0.4556862745098039,0.367843137254902
45,41,21,0.5247058823529411,0.48392156862745106,0.47137254901960784
51,10,31,0.27946336429308566,0.24127966976264192,0.20061919504643957
14,37,5,0.5362745098039216,0.4950980392156863,0.4725490196078431
49,1,37,0.3254901960784314,0.3019607843137255,0.25882352941176473
9,15,32,0.02050907319449515,0.03614663256606984,0.043892339544513354
53,32,32,0.5494809688581315,0.473125720876586,0.4322952710495964
2,14,39,0.19756592292089234,0.1651115618661258,0.11514536849222436
5,1,45,0.4796078431372549,0.41725490196078424,0.3580392156862745
5,13,38,0.26062951496388015,0.2720846233230136,0.24999999999999994
38,4,32,0.15686274509803916,0.14901960784313723,0.12941176470588237
13,12,2,0.6058823529411764,0.5117647058823529,0.4519607843137255
23,26,2,0.5939393939393938,0.5085561497326203,0.45490196078431383
8,37,33,0.5980392156862745,0.5163398692810458,0.47222222222222227
43,5,31,0.18039215686274512,0.16627450980392158,0.14666666666666667
7,18,31,0.5213235294117649,0.46225490196078445,0.4199754901960786
17,9,33,0.14438502673796794,0.146524064171123,0.14081996434937613
53,37,15,0.5398692810457516,0.5084967320261438,0.4875816993464052
2,13,39,0.25098039215686274,0.20392156862745098,0.13725490196078433
15,8,40,0.03952941176470589,0.20517647058823538,0.2395294117647059
15,0,18,0.28392156862745094,0.3129411764705882,0.3309803921568627
6,17,7,0.5816993464052288,0.4830065359477124,0.4006535947712418
57,0,11,0.2718954248366013,0.3032679738562091,0.3202614379084967
8,15,35,0.34624054346147887,0.29742164582368347,0.2117338273892231
27,0,17,0.2698039215686274,0.2988235294117647,0.31529411764705884
6,1,51,0.4803921568627451,0.4150326797385621,0.34771241830065364
32,37,10,0.5558823529411765,0.5117647058823529,0.4882352941176471
23,0,43,0.2696078431372549,0.3029411764705882,0.3205882352941176
3,14,39,0.2576757532281205,0.23797226207556182,0.20870396939263505
11,18,31,0.4491704374057315,0.411764705882353,0.3722473604826545
6,7,10,0.5294117647058822,0.4189542483660131,0.3398692810457517
32,10,32,0.14705882352941177,0.12745098039215685,0.10588235294117647
56,36,22,0.47107843137254907,0.43823529411764717,0.3838235294117647
48,1,34,0.35555555555555557,0.3241830065359477,0.269281045751634
3,13,34,0.541307189542484,0.48656862745098034,0.35624183006535926
32,16,51,0.3389978213507625,0.281917211328976,0.19738562091503267
4,13,34,0.4468409586056647,0.41020003961180423,0.33832442067736185
17,23,2,0.6124183006535948,0.526797385620915,0.46928104575163404
26,37,18,0.5199999999999999,0.48470588235294115,0.4666666666666667
2,1,46,0.4906862745098039,0.428921568627451,0.36323529411764705
31,28,31,0.6031372549019608,0.5247058823529411,0.48549019607843136
28,13,32,0.34798761609907114,0.3009287925696594,0.25902992776057787
15,0,25,0.2797385620915033,0.31241830065359477,0.3281045751633987
5,1,49,0.48235294117647054,0.41725490196078424,0.3533333333333334
21,37,21,0.5044705882352941,0.4621176470588236,0.44203921568627463
6,3,20,0.4823529411764706,0.3764705882352941,0.28627450980392155
47,26,2,0.6137254901960785,0.5313725490196078,0.4745098039215686
14,10,34,0.02623990772779698,0.04659746251441751,0.05588235294117643
21,37,7,0.5058823529411764,0.4640522875816994,0.4444444444444445
29,5,32,0.1568627450980392,0.14901960784313725,0.13098039215686275
3,1,46,0.4801120448179272,0.41960784313725485,0.3563025210084034
31,0,36,0.27731092436974786,0.3075630252100841,0.3243697478991597
3,14,34,0.5433634992458525,0.48220211161387616,0.3779788838612366
67,36,10,0.5254901960784313,0.4366013071895425,0.3647058823529412
58,36,4,0.518082788671024,0.45620915032679743,0.421350762527233
50,24,2,0.6049019607843137,0.5205882352941177,0.46862745098039216
22,15,2,0.6156862745098041,0.5305322128851541,0.4728291316526611
5,34,12,0.456470588235294,0.442875816993464,0.3660130718954248
46,2,37,0.18487394957983194,0.17871148459383757,0.16134453781512606
20,15,35,0.2717360114777619,0.2285031085604973,0.133428981348637
6,10,22,0.5419607843137254,0.43843137254901965,0.36156862745098045
13,0,18,0.2725490196078431,0.30294117647058827,0.3196078431372549
2,14,34,0.5557049486461255,0.5202987861811393,0.363585434173669
0,1,35,0.4856209150326798,0.4111111111111112,0.34313725490196084
3,0,54,0.3241379310344828,0.3156186612576064,0.3037187288708586
18,0,27,0.2768627450980392,0.3066666666666667,0.323921568627451
8,26,1,0.5921568627450979,0.508235294117647,0.4549019607843138
50,0,37,0.27254901960784317,0.3058823529411765,0.3215686274509804
5,29,13,0.6270588235294117,0.5399999999999999,0.4984313725490196
29,0,39,0.2764705882352941,0.30718954248366015,0.32352941176470584
10,37,18,0.48627450980392156,0.45098039215686275,0.43137254901960786
6,20,19,0.5892156862745098,0.49607843137254903,0.4362745098039216
6,4,15,0.5186274509803921,0.41078431372549024,0.3176470588235294
42,28,2,0.596078431372549,0.5124183006535947,0.45816993464052286
67,2,16,0.49215686274509807,0.3926470588235294,0.32009803921568625
50,0,9,0.26666666666666666,0.29869281045751633,0.3150326797385621
6,1,39,0.48989441930618405,0.4235294117647059,0.3631975867269985
6,6,5,0.5349019607843137,0.4313725490196078,0.3529411764705882
72,34,23,0.5431372549019607,0.49084967320261436,0.4614379084967321
4,13,35,0.4144721233689205,0.416802735329007,0.3618309957434933
8,37,8,0.534640522875817,0.49150326797385624,0.47189542483660124
28,0,31,0.27686274509803915,0.30797385620915024,0.3236601307189543
3,14,35,0.4204881952781108,0.5080032012805122,0.44205682272909164
54,1,36,0.47215686274509805,0.42745098039215684,0.3874509803921568
16,0,29,0.28186274509803916,0.3137254901960784,0.3299019607843137
13,0,29,0.27777777777777773,0.3104575163398693,0.3281045751633987
6,7,23,0.5232492997198879,0.4207282913165266,0.34229691876750706
35,2,31,0.1803921568627451,0.1607843137254902,0.13725490196078433
71,0,21,0.25019607843137254,0.28392156862745094,0.2988235294117647
35,5,31,0.1892156862745098,0.17450980392156865,0.1519607843137255
18,0,4,0.27921568627450977,0.3168627450980392,0.3325490196078431
3,1,52,0.47878787878787876,0.4124777183600713,0.3454545454545455
48,30,31,0.5747655583972718,0.4908780903665814,0.4458653026427964
25,4,43,0.04563279857397504,0.19839572192513372,0.2361853832442068
7,25,31,0.6571078431372549,0.5999999999999999,0.5536764705882352
35,10,33,0.2411764705882353,0.21323529411764708,0.17352941176470588
36,12,2,0.6150326797385621,0.5222222222222223,0.45751633986928103
35,13,33,0.3602728047740835,0.3156010230179029,0.24467178175618082
9,10,34,0.012254901960784314,0.03186274509803922,0.039705882352941174
20,11,39,0.13137254901960785,0.2823529411764706,0.29215686274509806
0,0,33,0.3289760348583878,0.3043572984749454,0.2751633986928105
2,14,35,0.41393188854489193,0.4488648090815276,0.35536635706914366
3,13,35,0.5022058823529412,0.5338235294117647,0.39436274509803915
22,0,35,0.2725490196078431,0.303921568627451,0.32254901960784316
4,34,2,0.42733564013840825,0.3756632064590542,0.32179930795847755
6,7,8,0.5166666666666666,0.4088235294117647,0.33235294117647063
6,10,28,0.540392156862745,0.4470588235294118,0.35215686274509805
57,34,26,0.44494720965309137,0.3937858220211158,0.36663650075414755
26,11,35,0.4265795206971678,0.38082788671023965,0.3084967320261438
4,31,0,0.606334841628959,0.5288084464555053,0.48461538461538467
15,16,32,0.3065953654188948,0.267379679144385,0.23172905525846701
2,14,36,0.22053056516724343,0.25536332179930793,0.2279123414071511
12,17,33,0.28061002178649236,0.2455337690631808,0.20653594771241834
58,0,16,0.268235294117647,0.3003921568627451,0.3176470588235294
14,1,44,0.4549019607843137,0.396078431372549,0.33464052287581697
6,10,29,0.512156862745098,0.41999999999999993,0.34039215686274515
41,2,2,0.5196078431372548,0.4294117647058823,0.37058823529411766
4,36,30,0.6046345811051693,0.5226381461675579,0.4755793226381462
56,37,14,0.5325490196078432,0.491764705882353,0.47215686274509805
10,0,32,0.27058823529411763,0.30549019607843136,0.327843137254902
31,13,36,0.5084967320261439,0.46091503267973855,0.37228758169934645
28,2,43,0.039738562091503275,0.16366013071895422,0.2141176470588234
4,32,7,0.6274509803921569,0.5437908496732026,0.5013071895424837
19,1,43,0.2450347881087919,0.21012017710309935,0.1757115749525617
5,34,11,0.38003565062388595,0.35543672014260247,0.2805704099821747
3,15,37,0.19607843137254902,0.20392156862745098,0.19215686274509805
27,17,35,0.2602941176470588,0.221078431372549,0.1676470588235294
30,5,32,0.15686274509803916,0.14901960784313723,0.12941176470588237
4,37,28,0.5562091503267974,0.48235294117647065,0.4505882352941178
1,1,30,0.43921568627450996,0.3843137254901961,0.32049910873440285
17,37,10,0.5019607843137255,0.46013071895424834,0.4418300653594771
58,3,2,0.5592156862745098,0.476078431372549,0.4235294117647059
40,27,31,0.6042120551924471,0.5144517066085693,0.4668119099491649
6,23,9,0.5355742296918767,0.43921568627450974,0.35686274509803917
4,0,25,0.2745098039215686,0.3067538126361656,0.3263616557734205
20,21,31,0.6485294117647059,0.572549019607843,0.5196078431372549
8,9,36,0.16851378232452396,0.2051150895140664,0.19278204035237273
25,32,0,0.5988795518207283,0.5109243697478991,0.45882352941176474
8,2,36,0.2339346405228756,0.21798692810457482,0.19372549019607815
67,24,3,0.586764705882353,0.49264705882352944,0.43186274509803935
3,1,26,0.33277310924369746,0.30364145658263303,0.23697478991596643
52,1,38,0.3150326797385621,0.322875816993464,0.2928104575163399
16,37,30,0.5431372549019607,0.48888888888888893,0.4653594771241831
46,16,33,0.5400560224089636,0.4532212885154063,0.4005602240896358
37,0,13,0.26601307189542484,0.30130718954248364,0.3196078431372549
8,1,36,0.33463503048278137,0.2881199538638987,0.24081397264788296
29,2,31,0.1803921568627451,0.1607843137254902,0.13725490196078433
4,33,7,0.605664488017429,0.516557734204793,0.4694989106753813
21,15,32,0.30147058823529416,0.2643382352941176,0.229656862745098
41,25,2,0.6065359477124183,0.5228758169934641,0.47189542483660135
4,29,0,0.5791537667698664,0.5015479876160991,0.4604059167526654
15,10,40,0.1922733449815569,0.3879635022325764,0.4192972238400312
6,13,25,0.44941176470588234,0.3780392156862745,0.28078431372549023
4,36,16,0.6016339869281045,0.5218954248366013,0.47385620915032683
69,4,54,0.21591695501730104,0.0997693194925029,0.09873125720876585
28,10,35,0.32577030812324936,0.30941176470588216,0.2731932773109244
21,18,2,0.6143790849673203,0.5320261437908497,0.47712418300653586
37,1,45,0.4169934640522876,0.36830065359477127,0.31372549019607837
6,19,28,0.5078431372549019,0.4112745098039216,0.33284313725490194
53,31,2,0.6088235294117647,0.5259803921568628,0.4754901960784314
6,24,13,0.5943977591036415,0.4946778711484594,0.4246498599439776
50,2,35,0.31403508771929833,0.29772961816305477,0.28121775025799806
4,31,27,0.6330532212885155,0.5501400560224089,0.5142857142857142
4,37,26,0.5769063180827886,0.4923747276688453,0.45795206971677566
67,23,9,0.5984313725490196,0.5058823529411764,0.43764705882352944
4,0,41,0.28496732026143784,0.3156862745098039,0.3333333333333333
6,8,25,0.41307189542483663,0.3372549019607843,0.26013071895424833
73,32,25,0.5943977591036413,0.5058823529411764,0.4546218487394959
6,29,13,0.5520184544405997,0.4657439446366782,0.41476355247981544
45,0,13,0.26666666666666666,0.29869281045751633,0.31633986928104574
21,13,2,0.6058823529411764,0.5166666666666666,0.4588235294117647
4,29,27,0.6308123249299717,0.5523809523809523,0.5238095238095238
27,8,31,0.1568627450980392,0.13725490196078433,0.11764705882352941
6,17,23,0.5652661064425769,0.4661064425770309,0.4022408963585434
16,0,9,0.2768627450980392,0.30823529411764705,0.32862745098039214
65,37,2,0.5667973856209149,0.49490196078431375,0.4507189542483661
70,0,26,0.25588235294117645,0.2931372549019608,0.307843137254902
15,5,40,0.04361744697879148,0.16030412164865965,0.19103641456582635
47,15,42,0.19317545199898092,0.16580086580086542,0.12706900942195037
45,37,14,0.5309803921568628,0.4870588235294118,0.4635294117647059
51,41,22,0.5163398692810457,0.47843137254901963,0.4640522875816993
6,15,14,0.5973856209150327,0.5006535947712418,0.41830065359477125
53,4,38,0.2599673202614379,0.23725490196078433,0.22140522875817
15,7,40,0.04554079696394685,0.20240354206198619,0.23453510436432642
62,33,2,0.5980392156862745,0.5156862745098039,0.46078431372549017
67,13,19,0.596078431372549,0.5071895424836601,0.4522875816993464
27,13,2,0.6109803921568628,0.5231372549019608,0.4596078431372549
14,0,17,0.2816993464052287,0.31241830065359477,0.32941176470588235
15,4,40,0.049990293146961656,0.12558726460881356,0.14900019413706042
15,9,40,0.04252450980392153,0.21899509803921574,0.2540441176470588
62,15,2,0.5931372549019608,0.5078431372549019,0.453921568627451
2,1,29,0.38823529411764707,0.34362745098039216,0.2784313725490196
57,34,2,0.6009803921568627,0.5210784313725491,0.4740196078431373
21,24,2,0.6066365007541477,0.5236802413273001,0.4723981900452489
48,5,40,0.2784313725490196,0.25141612200435737,0.2296296296296296
32,37,17,0.5405228758169934,0.5026143790849673,0.4830065359477124
65,36,2,0.5875816993464053,0.5124183006535947,0.4620915032679738
23,25,2,0.600871459694989,0.5167755991285402,0.46405228758169936
6,7,17,0.48725490196078436,0.3857843137254902,0.3122549019607843
2,1,28,0.3810457516339869,0.33921568627450976,0.2725490196078431
4,32,12,0.6270152505446622,0.5468409586056644,0.5054466230936819
4,1,24,0.34845938375350144,0.3098039215686275,0.24201680672268908
40,3,32,0.15686274509803919,0.14901960784313723,0.12941176470588237
56,37,23,0.36918767507002803,0.3450980392156863,0.323249299719888
55,31,33,0.6408963585434174,0.5652661064425769,0.5198879551820728
6,22,27,0.5964052287581698,0.4931372549019608,0.423202614379085
5,34,2,0.38333333333333325,0.3462745098039216,0.2768627450980393
5,35,21,0.12274509803921571,0.1103921568627451,0.0815686274509804
4,37,23,0.5730103806228373,0.4885813148788928,0.4551326412918109
3,1,25,0.33725490196078434,0.30637254901960786,0.23970588235294119
66,37,22,0.5501730103806226,0.4788927335640138,0.4495963091118802
8,6,36,0.09406081273088934,0.1823813583404375,0.19482807615799924
15,9,39,0.02992776057791538,0.1944272445820434,0.23095975232198143
7,30,33,0.6454901960784314,0.5698039215686272,0.527843137254902
30,0,41,0.2735294117647059,0.30686274509803924,0.32254901960784316
33,0,8,0.2533333333333333,0.2901960784313725,0.3058823529411765
14,37,8,0.47058823529411764,0.4235294117647059,0.403921568627451
4,1,22,0.3529411764705882,0.31058823529411766,0.2447058823529412
11,0,3,0.27843137254901956,0.3126050420168068,0.32717086834733894
6,12,32,0.35620915032679745,0.2813725490196078,0.2218954248366013
55,37,3,0.534453781512605,0.49075630252100844,0.465546218487395
6,27,16,0.5418300653594771,0.4470588235294118,0.3398692810457516
62,17,33,0.6028011204481791,0.518767507002801,0.4630252100840337
16,0,8,0.26862745098039215,0.3,0.3205882352941176
39,0,15,0.27058823529411763,0.30352941176470594,0.323921568627451
6,11,12,0.557516339869281,0.4542483660130719,0.37450980392156863
4,1,21,0.3509803921568627,0.30980392156862746,0.24705882352941178
5,1,25,0.33137254901960783,0.2934640522875817,0.23333333333333328
26,5,2,0.5929411764705883,0.5027450980392156,0.4454901960784314
70,1,36,0.509368191721133,0.43747276688453157,0.38649237472766884
12,0,3,0.2815686274509804,0.316078431372549,0.32784313725490194
5,0,29,0.27009803921568626,0.3014705882352941,0.321078431372549
20,0,32,0.27921568627450977,0.3105882352941176,0.3262745098039216
67,11,12,0.5777777777777777,0.4823529411764706,0.42352941176470593
70,0,29,0.2588235294117647,0.29333333333333333,0.30823529411764705
7,0,13,0.2745098039215686,0.3058823529411765,0.3264705882352941
5,1,21,0.32156862745098036,0.28431372549019607,0.2235294117647059
65,37,5,0.5486274509803921,0.4909803921568628,0.4666666666666667
5,1,20,0.3176470588235294,0.2823529411764706,0.2215686274509804
6,18,24,0.4722689075630252,0.3820728291316527,0.2952380952380952
15,3,31,0.43081232492997207,0.3624649859943978,0.3131652661064425
6,2,20,0.4549019607843137,0.3529411764705882,0.24862745098039216
6,12,5,0.5780392156862746,0.4784313725490196,0.41568627450980394
15,37,8,0.4970588235294118,0.4588235294117647,0.44019607843137254
11,0,36,0.2709803921568627,0.30588235294117644,0.3258823529411765
6,9,23,0.5555555555555557,0.44836601307189544,0.3450980392156863
20,17,33,0.45833333333333337,0.36960784313725487,0.275
51,7,43,0.054411764705882354,0.27941176470588236,0.31421568627450985
42,37,10,0.5555555555555556,0.5124183006535947,0.4901960784313726
7,0,4,0.276750700280112,0.3114845938375351,0.3277310924369748
65,16,32,0.4527357609710546,0.38054154995331424,0.30633053221288475
5,1,18,0.34640522875817,0.3019607843137255,0.2450980392156863
49,3,46,0.1950980392156863,0.11758169934640521,0.12620915032679733
7,1,34,0.4579185520361992,0.38974358974358975,0.3336349924585219
43,3,46,0.14604462474645025,0.11480730223123722,0.12427315753887756
14,5,2,0.6,0.5127450980392156,0.45784313725490194
6,5,25,0.48366013071895425,0.3934640522875817,0.3189542483660131
27,8,32,0.17052881758764116,0.16316102198455143,0.14616755793226383
37,19,30,0.4273157538877616,0.34645030425963474,0.2776200135226504
16,0,4,0.2690196078431372,0.3043137254901961,0.3176470588235294
14,30,33,0.6568627450980392,0.5816993464052288,0.5352941176470588
70,26,13,0.6215686274509804,0.5813725490196079,0.5529411764705882
6,17,24,0.5615686274509804,0.46196078431372556,0.3976470588235294
73,30,23,0.5989304812834223,0.5078431372549019,0.45775401069518723
4,1,25,0.35555555555555557,0.3137254901960784,0.24836601307189543
16,2,2,0.5223529411764706,0.4337254901960784,0.3749019607843137
6,25,18,0.6,0.4947712418300654,0.42026143790849674
39,0,19,0.268235294117647,0.30196078431372547,0.3215686274509804
2,0,43,0.2912655971479501,0.32655971479500895,0.3426024955436721
6,1,20,0.2664488017429194,0.2514161220043573,0.16514161220043572
38,0,7,0.2679738562091503,0.3032679738562092,0.3209150326797386
23,18,32,0.4911764705882353,0.4235294117647059,0.36666666666666664
44,37,3,0.5368191721132898,0.4958605664488018,0.4701525054466231
50,32,2,0.6027450980392156,0.5219607843137255,0.4690196078431373
4,0,52,0.2787330316742081,0.3043740573152337,0.3164404223227753
6,1,21,0.3204793028322441,0.28300653594771247,0.1773420479302832
16,10,39,0.1727272727272729,0.3099821746880573,0.32201426024955465
31,8,43,0.41078431372549035,0.5733660130718958,0.6083333333333336
44,37,2,0.5634803921568626,0.4987745098039216,0.4634803921568628
54,37,7,0.5343137254901961,0.4911764705882353,0.47058823529411764
71,1,6,0.41607843137254896,0.3533333333333334,0.2949019607843137
19,0,39,0.2656862745098039,0.2980392156862745,0.31666666666666665
4,30,5,0.6516339869281046,0.5699346405228757,0.5228758169934641
24,0,41,0.26862745098039215,0.3019607843137255,0.3176470588235294
6,1,31,0.32203548085901046,0.2862745098039218,0.21251167133520074
13,28,31,0.6137254901960784,0.5333333333333333,0.46862745098039216
53,38,26,0.6291316526610645,0.5540616246498599,0.5137254901960784
68,1,22,0.4274509803921569,0.3681372549019608,0.3181372549019607
36,34,2,0.5928104575163399,0.5124183006535947,0.46013071895424834
7,0,42,0.27752639517345395,0.30829562594268467,0.32639517345399705
53,5,42,0.4059820538384842,0.35320704553007626,0.30927218344965113
6,19,25,0.5563025210084034,0.4582633053221289,0.3887955182072829
6,11,31,0.24869281045751634,0.1869281045751634,0.1326797385620915
22,37,11,0.48392156862745106,0.443921568627451,0.42745098039215684
3,1,41,0.4778711484593838,0.419047619047619,0.3585434173669468
24,11,33,0.05185185185185184,0.054466230936819175,0.054466230936819175
2,0,6,0.27777777777777773,0.30980392156862746,0.3281045751633987
7,36,33,0.6509803921568627,0.5918954248366012,0.5524183006535949
6,3,21,0.4784313725490196,0.37411764705882355,0.2901960784313726
57,7,43,0.03445378151260503,0.2621848739495798,0.29999999999999993
67,25,18,0.5915966386554622,0.492436974789916,0.42801120448179264
6,4,2,0.5350140056022409,0.42969187675070025,0.35070028011204485
11,7,2,0.6019607843137255,0.5098039215686274,0.453921568627451
6,2,19,0.4580392156862745,0.3545098039215686,0.25176470588235295
10,10,36,0.19019607843137254,0.17058823529411765,0.15714285714285717
9,37,9,0.5362745098039216,0.4980392156862745,0.4784313725490196
12,37,9,0.5202614379084967,0.47843137254901963,0.4562091503267974
4,31,26,0.6264705882352942,0.5431372549019607,0.5083333333333333
51,27,2,0.6029411764705882,0.5186274509803922,0.4647058823529412
59,26,30,0.5440750213128732,0.4617220801364022,0.39604433077578816
6,3,9,0.5011764705882353,0.39529411764705885,0.2988235294117647
6,1,19,0.3002801120448179,0.27142857142857146,0.16302521008403356
11,37,26,0.5309803921568628,0.4909803921568628,0.47137254901960784
6,4,19,0.4950980392156863,0.3931372549019607,0.2950980392156863
69,33,32,0.5411764705882353,0.4735294117647059,0.446732026143791
13,34,33,0.6638146167557933,0.5985739750445632,0.5575757575757575
35,12,33,0.26941176470588235,0.22568627450980397,0.17784313725490192
4,30,19,0.6413943355119827,0.5603485838779956,0.5237472766884532
73,27,10,0.5921568627450979,0.49768270944741533,0.44313725490196093
18,37,33,0.6148606811145508,0.5378740970072239,0.4951496388028896
54,5,31,0.23398692810457514,0.19738562091503267,0.16209150326797386
50,41,26,0.5668449197860962,0.5019607843137255,0.4816399286987522
6,15,18,0.5803921568627451,0.48392156862745095,0.4109803921568628
5,0,48,0.277995642701525,0.306318082788671,0.3215686274509804
6,28,3,0.5848039215686275,0.4916666666666667,0.43137254901960775
32,0,42,0.268235294117647,0.2988235294117647,0.31450980392156863
44,27,31,0.6022408963585433,0.5246498599439776,0.47843137254901963
6,27,5,0.5339869281045752,0.4457516339869281,0.3581699346405229
50,5,43,0.03774509803921569,0.2254901960784314,0.2681372549019608
16,19,2,0.6125490196078431,0.5247058823529411,0.4627450980392157
66,12,33,0.6084033613445377,0.5299719887955181,0.46890756302521014
16,33,0,0.6053921568627451,0.5240196078431373,0.4725490196078432
6,2,18,0.469467787114846,0.36526610644257707,0.2700280112044818
55,2,37,0.3260130718954249,0.2949019607843138,0.2478431372549019
41,1,49,0.4622549019607844,0.40735294117647053,0.35833333333333334
35,18,2,0.6067736185383243,0.5133689839572192,0.4531194295900179
6,3,17,0.49264705882352944,0.38578431372549016,0.3
26,37,21,0.5009803921568627,0.47107843137254907,0.4612745098039216
6,4,17,0.48627450980392156,0.3854341736694678,0.2974789915966386
4,35,7,0.22405228758169932,0.19294117647058825,0.16627450980392158
6,26,4,0.5895424836601306,0.4973856209150327,0.42647058823529416
0,0,53,0.30222575516693145,0.29220985691573903,0.28229994700582905
28,15,2,0.615686274509804,0.5245098039215687,0.4627450980392157
3,1,48,0.4875816993464052,0.42483660130718953,0.3581699346405229
6,2,3,0.4752941176470589,0.3701960784313726,0.26941176470588235
5,0,33,0.2725490196078431,0.3044117647058824,0.3235294117647059
6,4,18,0.49607843137254903,0.39215686274509803,0.3019607843137255
4,1,46,0.47843137254901963,0.4196078431372549,0.3568627450980392
73,27,8,0.5980392156862745,0.5049019607843137,0.45196078431372555
34,0,12,0.2635294117647059,0.2980392156862745,0.3192156862745098
37,16,32,0.373482726423903,0.31671335200746953,0.25957049486461253
26,18,2,0.6222222222222222,0.5274509803921569,0.4660130718954249
67,17,5,0.5947712418300654,0.4993464052287582,0.44052287581699345
56,33,32,0.5379679144385027,0.46951871657754013,0.4303030303030304
49,0,39,0.26778711484593837,0.30196078431372547,0.3182072829131653
5,0,54,0.32997198879551826,0.3030812324929971,0.2781512605042017
0,1,27,0.4649859943977592,0.39775910364145656,0.33053221288515405
6,8,16,0.43921568627450985,0.3411764705882353,0.2611764705882353
6,5,20,0.4909803921568628,0.3898039215686275,0.3050980392156863
4,36,25,0.6098039215686273,0.5204481792717087,0.4778711484593838
44,38,26,0.6088235294117645,0.538235294117647,0.5007352941176471
30,0,29,0.27581699346405225,0.30915032679738563,0.32483660130718955
7,29,33,0.5857142857142856,0.5215686274509804,0.4865546218487396
6,12,22,0.5450980392156863,0.44509803921568625,0.3607843137254902
58,28,2,0.596078431372549,0.5120448179271708,0.4610644257703082
6,22,22,0.5764705882352942,0.47843137254901963,0.4058823529411764
19,37,10,0.4970588235294118,0.4558823529411765,0.438235294117647
17,0,20,0.2815686274509804,0.3129411764705882,0.32941176470588235
34,12,36,0.43279857397504473,0.3606060606060605,0.2994652406417112
10,6,31,0.4970588235294118,0.41862745098039217,0.3686274509803922
6,14,12,0.5624649859943976,0.4554621848739496,0.3686274509803922
49,40,20,0.5752941176470586,0.5047058823529411,0.4635294117647059
9,14,33,0.019934640522875812,0.03660130718954247,0.044444444444444446
73,1,22,0.4313725490196078,0.3715686274509804,0.31568627450980397
6,5,19,0.4993464052287582,0.4006535947712418,0.3084967320261438
6,0,51,0.27941176470588236,0.30686274509803924,0.3215686274509804
6,21,7,0.6141176470588235,0.5145098039215685,0.43921568627450985
10,37,27,0.5372549019607843,0.4972549019607843,0.4807843137254902
6,20,24,0.5843137254901961,0.48549019607843136,0.42274509803921567
58,9,41,0.12718954248366002,0.31130718954248393,0.36357298474945576
19,10,40,0.21548687271518777,0.41010302426055134,0.42711864406779626
14,12,32,0.025490196078431365,0.039215686274509796,0.04607843137254902
21,18,36,0.4588235294117647,0.3830065359477124,0.3359477124183006
12,10,36,0.41164215686274525,0.3587009803921571,0.3274509803921569
6,24,27,0.5901960784313726,0.48235294117647065,0.4150326797385621
72,31,28,0.4954248366013072,0.40958605664488035,0.35272331154684083
6,11,20,0.5617647058823529,0.46176470588235297,0.3813725490196078
27,3,32,0.1578947368421052,0.14984520123839004,0.1306501547987616
61,26,33,0.6095238095238095,0.5366946778711484,0.4873949579831933
16,0,16,0.27450980392156865,0.307843137254902,0.3235294117647059
34,0,41,0.26056644880174296,0.29411764705882354,0.3111111111111111
70,31,33,0.6086274509803921,0.52,0.4796078431372549
45,32,31,0.6106442577030815,0.5343417366946784,0.49310924369747855
59,37,2,0.5525326797385627,0.47941176470588215,0.44256535947712394
24,14,32,0.19738562091503267,0.1797385620915033,0.16045751633986927
53,0,12,0.26666666666666666,0.2988235294117647,0.3168627450980392
5,29,22,0.6134453781512607,0.5333333333333333,0.5002801120448179
51,0,16,0.2745098039215686,0.3058823529411765,0.32287581699346407
14,0,5,0.26862745098039215,0.3044117647058823,0.321078431372549
15,6,35,0.07163398692810458,0.1686274509803921,0.1783006535947712
42,13,33,0.5140522875816994,0.4359477124183007,0.3565359477124183
16,17,35,0.3631372549019608,0.28392156862745094,0.20862745098039218
6,5,21,0.4375350140056022,0.3635854341736695,0.3014005602240896
26,0,17,0.269281045751634,0.3006535947712418,0.31633986928104574
61,0,11,0.26601307189542484,0.30196078431372547,0.3183006535947712
16,12,2,0.6088235294117648,0.5176470588235295,0.4588235294117647
72,32,16,0.520679738562092,0.4376993464052281,0.38901960784313677
6,20,25,0.5849673202614379,0.48562091503267973,0.42287581699346405
31,25,2,0.6142156862745098,0.5240196078431373,0.461764705882353
0,0,44,0.30267379679144374,0.2919786096256684,0.27415329768270946
72,31,33,0.599673202614379,0.5111111111111111,0.47156862745098044
59,39,26,0.6058823529411763,0.5274509803921569,0.489760348583878
3,1,43,0.4759803921568628,0.4161764705882352,0.353921568627451
59,10,32,0.27124183006535946,0.23594771241830062,0.20980392156862746
51,0,5,0.27058823529411763,0.30196078431372547,0.3182072829131653
6,4,21,0.43843137254901954,0.34980392156862744,0.2627450980392157
8,29,32,0.6088235294117648,0.5544117647058823,0.5230392156862744
6,12,23,0.5555555555555555,0.45098039215686275,0.3686274509803922
28,6,31,0.1784313725490196,0.15490196078431373,0.13137254901960785
37,2,32,0.15686274509803924,0.1490196078431373,0.12941176470588242
24,33,31,0.6078431372549019,0.5264705882352941,0.4823529411764706
6,4,22,0.4650980392156862,0.36235294117647054,0.25098039215686274
60,10,31,0.12254901960784317,0.1090686274509804,0.09705882352941174
14,0,45,0.2745098039215686,0.3084967320261438,0.3254901960784314
5,0,45,0.28039215686274505,0.3107843137254902,0.3269607843137255
21,30,33,0.6105711849957371,0.5309462915601023,0.4840579710144928
49,31,2,0.6111111111111112,0.5261437908496732,0.47189542483660135
24,0,8,0.27254901960784317,0.30294117647058827,0.3176470588235294
6,2,15,0.481045751633987,0.37777777777777777,0.2862745098039216
27,0,54,0.273202614379085,0.28954248366013075,0.2980392156862745
6,15,17,0.5774509803921569,0.48333333333333334,0.40980392156862744
6,3,22,0.4901960784313726,0.3843137254901961,0.3019607843137255
26,0,29,0.2794117647058823,0.3122549019607843,0.3264705882352941
18,29,32,0.5843137254901961,0.5215686274509804,0.48562091503267973
31,32,2,0.5994397759103641,0.5187675070028012,0.46386554621848747
6,20,27,0.5848739495798319,0.4857142857142857,0.4224089635854341
6,22,17,0.5558823529411765,0.45784313725490194,0.3833333333333333
50,22,31,0.6235294117647059,0.5372549019607843,0.4854030501089324
22,15,35,0.17074647402820778,0.14154798761609896,0.09542483660130693
6,16,6,0.5633986928104574,0.46078431372549017,0.3738562091503268
56,1,52,0.44509803921568636,0.39166666666666666,0.33137254901960783
6,4,23,0.471078431372549,0.3681372549019608,0.26372549019607844
19,10,41,0.31851851851851876,0.5219172113289763,0.5410021786492379
51,41,24,0.5202614379084968,0.48104575163398694,0.4666666666666666
23,0,15,0.2768627450980392,0.31058823529411766,0.33019607843137255
4,0,2,0.3609548167092923,0.3034953111679453,0.24484228473998296
24,19,2,0.611764705882353,0.5264705882352941,0.47058823529411764
59,2,31,0.33627450980392154,0.27058823529411763,0.2196078431372549
4,31,11,0.6281045751633987,0.5464052287581699,0.5026143790849673
6,3,24,0.49869281045751634,0.39150326797385615,0.31176470588235294
30,32,2,0.596078431372549,0.5071895424836601,0.4503267973856209
38,2,43,0.022408963585434157,0.09624649859943968,0.13058823529411775
11,15,2,0.6026143790849673,0.5137254901960784,0.4522875816993464
17,21,2,0.6209150326797386,0.5326797385620915,0.4758169934640523
57,12,33,0.5739495798319326,0.5117647058823529,0.45490196078431383
48,4,33,0.392085561497326,0.3532976827094474,0.33048128342245986
43,28,2,0.6,0.5160784313725489,0.46196078431372545
31,11,37,0.2701112877583466,0.3278219395866452,0.32103868574456784
14,0,19,0.2862745098039215,0.31813725490196076,0.3362745098039216
40,0,45,0.2571428571428571,0.28851540616246496,0.3064425770308123
28,16,46,0.3990196078431372,0.3676470588235294,0.3066176470588235
6,15,25,0.5235294117647058,0.442156862745098,0.3578431372549019
6,2,23,0.4795008912655972,0.3714795008912656,0.28163992869875226
44,25,2,0.6049019607843137,0.5156862745098039,0.46078431372549017
25,0,34,0.2696078431372549,0.303921568627451,0.3205882352941176
59,16,33,0.6053921568627451,0.5264705882352941,0.46960784313725495
29,26,2,0.6188235294117648,0.5333333333333333,0.47058823529411764
6,5,22,0.4572549019607843,0.3654901960784314,0.28392156862745094
59,0,53,0.26535947712418295,0.2973856209150327,0.31241830065359477
4,37,31,0.5706734867860187,0.4862745098039216,0.4506393861892584
4,36,31,0.6069716775599129,0.5211328976034858,0.47276688453159044
60,36,2,0.5852941176470589,0.5083333333333333,0.46176470588235297
69,1,30,0.432156862745098,0.3749019607843137,0.3184313725490196
63,2,2,0.515032679738562,0.43267973856209146,0.37777777777777777
17,0,11,0.27843137254901956,0.31176470588235294,0.3281045751633987
19,0,15,0.27450980392156865,0.3058823529411765,0.3241830065359477
18,0,33,0.2784313725490196,0.30980392156862746,0.3284313725490196
14,13,32,0.019607843137254895,0.035294117647058816,0.043137254901960784
67,1,23,0.3997385620915034,0.3409150326797385,0.2878431372549019
5,33,10,0.4596638655462185,0.4036414565826331,0.3246498599439776
51,1,32,0.17535014005602237,0.16022408963585427,0.14098972922502334
43,26,30,0.5616267247639797,0.47131445170660846,0.41121278140885953
70,0,51,0.24985994397759104,0.276750700280112,0.28739495798319326
20,0,14,0.2752941176470588,0.3066666666666667,0.3247058823529412
38,20,2,0.6053921568627451,0.5181372549019608,0.4598039215686275
4,29,32,0.6072398190045246,0.534841628959276,0.49924585218702866
6,5,23,0.5186274509803921,0.411764705882353,0.3245098039215686
21,0,40,0.2705882352941177,0.30352941176470594,0.32313725490196077
32,7,31,0.2196078431372549,0.21568627450980393,0.18823529411764706
29,0,32,0.28650519031141863,0.3197231833910034,0.3377162629757785
65,15,51,0.15555555555555553,0.1326797385620915,0.12026143790849675
26,1,45,0.45751633986928103,0.40392156862745104,0.3490196078431372
20,33,0,0.6078431372549019,0.5235294117647059,0.46862745098039216
6,6,22,0.5143790849673202,0.4124183006535948,0.34117647058823536
6,22,26,0.5666666666666667,0.4656862745098039,0.3950980392156863
5,35,10,0.1343137254901961,0.11490196078431374,0.07980392156862744
67,5,51,0.1092924126172208,0.15473145780051162,0.18610400682011943
6,4,24,0.4593837535014006,0.3647058823529412,0.26722689075630257
22,20,2,0.6078431372549019,0.5225490196078431,0.4676470588235294
6,6,21,0.5098039215686274,0.4109803921568627,0.3411764705882353
6,26,8,0.5823529411764706,0.47696078431372546,0.3950980392156862
16,14,32,0.03660130718954249,0.048801742919389976,0.05403050108932462
5,33,2,0.4449197860962568,0.3913547237076649,0.33600713012477723
67,2,6,0.5006535947712418,0.40522875816993464,0.34161220043572993
28,0,45,0.26666666666666666,0.30196078431372547,0.3176470588235294
55,3,32,0.16443542934415145,0.15104800540906016,0.13333333333333333
8,33,33,0.624767801857585,0.5529411764705882,0.5131062951496388
39,10,2,0.6266666666666667,0.5356862745098039,0.47215686274509805
56,35,23,0.439386189258312,0.4008525149190112,0.36794543904518345
4,33,16,0.613574660633484,0.5155354449472096,0.4687782805429864
22,0,27,0.27058823529411763,0.3013071895424837,0.31699346405228757
27,1,46,0.4496732026143791,0.396078431372549,0.34379084967320256
56,15,50,0.2945304437564498,0.2449948400412797,0.18906088751289998
19,18,33,0.32287581699346407,0.3154684095860567,0.27494553376906317
24,29,31,0.595751633986928,0.5130718954248366,0.4683006535947713
24,4,32,0.15803921568627458,0.14911764705882363,0.1310784313725491
6,6,23,0.5196078431372549,0.41568627450980394,0.34509803921568627
